ply
format ascii 1.0
comment created by MATLAB ply_write
element vertex 1668
property float x
property float y
property float z
end_header
0.059602 0.019999 0.123943 
0.059321 0.020412 0.123947 
0.059138 0.020893 0.123956 
0.058659 0.021171 0.123950 
0.058377 0.021585 0.123954 
0.057997 0.021930 0.123954 
0.057715 0.022344 0.123958 
0.057532 0.022824 0.123966 
0.057350 0.023304 0.123976 
0.056969 0.023650 0.123974 
0.056688 0.024063 0.123979 
0.056307 0.024409 0.123978 
0.055927 0.024755 0.123977 
0.055447 0.025034 0.123971 
0.055067 0.025379 0.123970 
0.054588 0.025658 0.123964 
0.054108 0.025936 0.123958 
0.053431 0.026080 0.123942 
0.053051 0.026426 0.123941 
0.052176 0.026435 0.123914 
0.051499 0.026579 0.123898 
0.050921 0.026790 0.123886 
0.050046 0.026799 0.123860 
0.049567 0.027078 0.123854 
0.048791 0.027154 0.123832 
0.047817 0.027096 0.123802 
0.047041 0.027173 0.123779 
0.046463 0.027384 0.123769 
0.045687 0.027460 0.123747 
0.044713 0.027402 0.123716 
0.043838 0.027411 0.123689 
0.043161 0.027555 0.123673 
0.042385 0.027632 0.123652 
0.041412 0.027574 0.123620 
0.040735 0.027717 0.123604 
0.039267 0.027323 0.123547 
0.037799 0.026928 0.123490 
0.036331 0.026533 0.123433 
0.035060 0.026273 0.123386 
0.034581 0.026551 0.123380 
0.032915 0.026022 0.123312 
0.077382 -0.087971 0.121580 
0.077940 -0.086987 0.121641 
0.078498 -0.086002 0.121702 
0.079580 -0.084660 0.121799 
0.080243 -0.083604 0.121868 
0.080381 -0.082905 0.121900 
0.080519 -0.082206 0.121934 
0.080658 -0.081507 0.121966 
0.080586 -0.080951 0.121984 
0.080934 -0.080109 0.122031 
0.082541 -0.078410 0.122164 
0.082889 -0.077568 0.122211 
0.082922 -0.076941 0.122237 
0.083375 -0.076027 0.122291 
0.083724 -0.075186 0.122337 
0.084386 -0.074129 0.122407 
0.084734 -0.073288 0.122453 
0.084978 -0.072517 0.122493 
0.085116 -0.071818 0.122526 
0.085149 -0.071191 0.122551 
0.085182 -0.070563 0.122576 
0.085111 -0.070007 0.122595 
0.085144 -0.069380 0.122620 
0.085177 -0.068752 0.122647 
0.085105 -0.068196 0.122664 
0.084929 -0.067712 0.122676 
0.084857 -0.067156 0.122695 
0.084680 -0.066671 0.122706 
0.084399 -0.066258 0.122710 
0.084222 -0.065773 0.122722 
0.083941 -0.065360 0.122726 
0.083554 -0.065018 0.122722 
0.083272 -0.064605 0.122727 
0.082991 -0.064192 0.122731 
0.082604 -0.063850 0.122727 
0.082218 -0.063509 0.122724 
0.081831 -0.063167 0.122721 
0.081445 -0.062825 0.122718 
0.080953 -0.062555 0.122708 
0.080567 -0.062213 0.122705 
0.080075 -0.061943 0.122694 
0.079689 -0.061601 0.122692 
0.079198 -0.061331 0.122681 
0.078706 -0.061061 0.122671 
0.078215 -0.060790 0.122661 
0.077723 -0.060520 0.122651 
0.077232 -0.060250 0.122641 
0.076740 -0.059980 0.122631 
0.076144 -0.059781 0.122614 
0.075757 -0.059439 0.122610 
0.075266 -0.059169 0.122600 
0.074775 -0.058898 0.122590 
0.074388 -0.058557 0.122587 
0.074002 -0.058215 0.122584 
0.073720 -0.057802 0.122588 
0.073438 -0.057389 0.122592 
0.073157 -0.056976 0.122596 
0.072980 -0.056491 0.122607 
0.072699 -0.056078 0.122612 
0.072522 -0.055593 0.122623 
0.072240 -0.055180 0.122627 
0.072064 -0.054695 0.122638 
0.071782 -0.054282 0.122642 
0.071501 -0.053869 0.122646 
0.071324 -0.053384 0.122657 
0.070938 -0.053043 0.122654 
0.070656 -0.052630 0.122658 
0.070269 -0.052288 0.122656 
0.069883 -0.051946 0.122653 
0.069496 -0.051604 0.122649 
0.069110 -0.051263 0.122646 
0.068723 -0.050921 0.122643 
0.068337 -0.050579 0.122641 
0.067950 -0.050238 0.122637 
0.067564 -0.049896 0.122634 
0.067177 -0.049554 0.122631 
0.066686 -0.049284 0.122621 
0.066299 -0.048942 0.122618 
0.065913 -0.048600 0.122615 
0.065526 -0.048259 0.122612 
0.065140 -0.047917 0.122608 
0.064648 -0.047647 0.122599 
0.064262 -0.047305 0.122596 
0.063771 -0.047035 0.122585 
0.063279 -0.046764 0.122575 
0.062683 -0.046566 0.122557 
0.062191 -0.046295 0.122548 
0.061805 -0.045954 0.122545 
0.061313 -0.045683 0.122534 
0.060927 -0.045342 0.122531 
0.060435 -0.045071 0.122521 
0.059944 -0.044801 0.122511 
0.059452 -0.044531 0.122501 
0.058856 -0.044332 0.122483 
0.058365 -0.044062 0.122474 
0.057873 -0.043791 0.122463 
0.057382 -0.043521 0.122452 
0.057100 -0.043108 0.122456 
0.056714 -0.042766 0.122454 
0.056432 -0.042353 0.122458 
0.056151 -0.041940 0.122462 
0.055974 -0.041455 0.122473 
0.055902 -0.040899 0.122492 
0.055831 -0.040343 0.122510 
0.055969 -0.039644 0.122543 
0.057156 -0.038231 0.122647 
0.057819 -0.037175 0.122715 
0.057957 -0.036476 0.122749 
0.057886 -0.035920 0.122766 
0.057919 -0.035292 0.122793 
0.057742 -0.034808 0.122803 
0.057565 -0.034323 0.122814 
0.057494 -0.033767 0.122833 
0.057317 -0.033282 0.122845 
0.057141 -0.032798 0.122855 
0.056859 -0.032385 0.122859 
0.056577 -0.031972 0.122863 
0.056401 -0.031487 0.122875 
0.056119 -0.031074 0.122879 
0.055733 -0.030732 0.122876 
0.055451 -0.030319 0.122880 
0.055170 -0.029906 0.122884 
0.054783 -0.029564 0.122882 
0.054397 -0.029222 0.122878 
0.054115 -0.028809 0.122882 
0.053833 -0.028396 0.122887 
0.053657 -0.027911 0.122898 
0.053480 -0.027427 0.122909 
0.053199 -0.027014 0.122913 
0.053022 -0.026529 0.122924 
0.052740 -0.026116 0.122928 
0.052459 -0.025703 0.122932 
0.052072 -0.025361 0.122929 
0.051686 -0.025019 0.122927 
0.051194 -0.024749 0.122916 
0.053851 -0.022335 0.123120 
0.053989 -0.021637 0.123153 
0.053183 -0.021581 0.123122 
0.061764 -0.012713 0.123709 
0.062471 -0.011627 0.123764 
0.062980 -0.010675 0.123809 
0.063292 -0.009858 0.123842 
0.063307 -0.009242 0.123862 
0.063124 -0.008762 0.123871 
0.063436 -0.007945 0.123905 
0.063748 -0.007128 0.123940 
0.063961 -0.006378 0.123968 
0.064272 -0.005561 0.124003 
0.064386 -0.004878 0.124027 
0.064401 -0.004263 0.124046 
0.064515 -0.003580 0.124070 
0.064530 -0.002965 0.124090 
0.064545 -0.002350 0.124109 
0.064560 -0.001735 0.124128 
0.064575 -0.001120 0.124147 
0.064492 -0.000572 0.124162 
0.064507 0.000043 0.124181 
0.064522 0.000658 0.124199 
0.064438 0.001206 0.124214 
0.064453 0.001821 0.124233 
0.064567 0.002504 0.124257 
0.064582 0.003119 0.124277 
0.064498 0.003667 0.124291 
0.064414 0.004215 0.124305 
0.064429 0.004830 0.124324 
0.064444 0.005445 0.124343 
0.064558 0.006128 0.124367 
0.064475 0.006675 0.124382 
0.064391 0.007223 0.124396 
0.064406 0.007838 0.124415 
0.064322 0.008386 0.124429 
0.064238 0.008934 0.124444 
0.064154 0.009482 0.124458 
0.064071 0.010030 0.124472 
0.063987 0.010578 0.124486 
0.063804 0.011058 0.124495 
0.063720 0.011606 0.124509 
0.063538 0.012086 0.124518 
0.063355 0.012567 0.124528 
0.063172 0.013047 0.124537 
0.062989 0.013528 0.124545 
0.062906 0.014076 0.124560 
0.062822 0.014623 0.124574 
0.062639 0.015104 0.124583 
0.062456 0.015585 0.124592 
0.062175 0.015998 0.124596 
0.061992 0.016478 0.124606 
0.061513 0.016757 0.124599 
0.061330 0.017237 0.124609 
0.060950 0.017583 0.124608 
0.060668 0.017996 0.124612 
0.060288 0.018342 0.124611 
0.060006 0.018755 0.124615 
0.059626 0.019101 0.124614 
0.059245 0.019447 0.124613 
0.058964 0.019860 0.124617 
0.058583 0.020206 0.124616 
0.058203 0.020552 0.124615 
0.057723 0.020830 0.124610 
0.057343 0.021176 0.124609 
0.057061 0.021589 0.124613 
0.056780 0.022002 0.124617 
0.056498 0.022415 0.124621 
0.056217 0.022829 0.124625 
0.055935 0.023242 0.124629 
0.055654 0.023655 0.124633 
0.055273 0.024001 0.124632 
0.054794 0.024279 0.124627 
0.054512 0.024692 0.124631 
0.053835 0.024836 0.124615 
0.053356 0.025115 0.124608 
0.052876 0.025393 0.124603 
0.052199 0.025537 0.124587 
0.051522 0.025681 0.124571 
0.050648 0.025690 0.124544 
0.050168 0.025968 0.124539 
0.049293 0.025978 0.124512 
0.048715 0.026189 0.124502 
0.047939 0.026265 0.124480 
0.047163 0.026342 0.124459 
0.046190 0.026284 0.124428 
0.045611 0.026495 0.124418 
0.044737 0.026504 0.124391 
0.043862 0.026513 0.124366 
0.043086 0.026589 0.124345 
0.042409 0.026733 0.124329 
0.041435 0.026675 0.124297 
0.040263 0.026482 0.124256 
0.038697 0.026020 0.124195 
0.037228 0.025625 0.124139 
0.036749 0.025904 0.124133 
0.035281 0.025509 0.124076 
0.034505 0.025585 0.124055 
0.032740 0.024988 0.123984 
0.077447 -0.087632 0.122319 
0.077900 -0.086718 0.122372 
0.078983 -0.085376 0.122469 
0.080065 -0.084034 0.122564 
0.080308 -0.083264 0.122604 
0.080132 -0.082780 0.122616 
0.080375 -0.082009 0.122655 
0.080618 -0.081239 0.122694 
0.082855 -0.079111 0.122869 
0.083098 -0.078341 0.122908 
0.083341 -0.077570 0.122948 
0.083479 -0.076871 0.122980 
0.083722 -0.076101 0.123020 
0.083755 -0.075473 0.123045 
0.084103 -0.074632 0.123091 
0.084451 -0.073790 0.123138 
0.084904 -0.072877 0.123192 
0.084938 -0.072249 0.123217 
0.085181 -0.071479 0.123257 
0.085109 -0.070923 0.123275 
0.085037 -0.070367 0.123293 
0.084966 -0.069811 0.123311 
0.084999 -0.069183 0.123336 
0.084927 -0.068627 0.123355 
0.084855 -0.068071 0.123373 
0.084784 -0.067515 0.123392 
0.084607 -0.067030 0.123402 
0.084326 -0.066617 0.123406 
0.084149 -0.066133 0.123418 
0.083867 -0.065719 0.123422 
0.083586 -0.065306 0.123426 
0.083304 -0.064893 0.123430 
0.082918 -0.064551 0.123427 
0.082636 -0.064138 0.123431 
0.082250 -0.063796 0.123429 
0.081863 -0.063455 0.123425 
0.081477 -0.063113 0.123422 
0.081090 -0.062771 0.123419 
0.080599 -0.062501 0.123409 
0.080212 -0.062159 0.123406 
0.079721 -0.061889 0.123397 
0.079334 -0.061547 0.123393 
0.078843 -0.061277 0.123384 
0.078351 -0.061007 0.123373 
0.077860 -0.060737 0.123364 
0.077368 -0.060466 0.123353 
0.076877 -0.060196 0.123343 
0.076386 -0.059926 0.123333 
0.075894 -0.059655 0.123323 
0.075508 -0.059314 0.123320 
0.075016 -0.059043 0.123310 
0.074525 -0.058773 0.123300 
0.074138 -0.058431 0.123297 
0.073857 -0.058018 0.123301 
0.073575 -0.057605 0.123305 
0.073294 -0.057192 0.123309 
0.073012 -0.056779 0.123313 
0.072835 -0.056294 0.123324 
0.072659 -0.055810 0.123336 
0.072377 -0.055396 0.123340 
0.072096 -0.054983 0.123344 
0.071919 -0.054499 0.123356 
0.071637 -0.054085 0.123360 
0.071356 -0.053672 0.123364 
0.071074 -0.053259 0.123368 
0.070688 -0.052917 0.123365 
0.070406 -0.052504 0.123369 
0.070020 -0.052163 0.123365 
0.069633 -0.051821 0.123362 
0.069247 -0.051479 0.123360 
0.068860 -0.051137 0.123357 
0.068474 -0.050796 0.123354 
0.068087 -0.050454 0.123350 
0.067701 -0.050112 0.123348 
0.067314 -0.049771 0.123345 
0.066823 -0.049500 0.123335 
0.066541 -0.049087 0.123339 
0.066155 -0.048745 0.123336 
0.065663 -0.048475 0.123325 
0.065277 -0.048133 0.123323 
0.064785 -0.047863 0.123313 
0.064399 -0.047521 0.123309 
0.063907 -0.047251 0.123300 
0.063416 -0.046981 0.123289 
0.062924 -0.046711 0.123280 
0.062538 -0.046369 0.123276 
0.062046 -0.046099 0.123267 
0.061660 -0.045757 0.123264 
0.061273 -0.045415 0.123260 
0.060782 -0.045145 0.123251 
0.060291 -0.044875 0.123240 
0.059694 -0.044676 0.123223 
0.059098 -0.044477 0.123206 
0.058606 -0.044207 0.123196 
0.058115 -0.043936 0.123186 
0.057519 -0.043738 0.123169 
0.057132 -0.043396 0.123166 
0.056746 -0.043054 0.123163 
0.056254 -0.042784 0.123153 
0.055868 -0.042442 0.123150 
0.055586 -0.042029 0.123154 
0.055305 -0.041616 0.123158 
0.055023 -0.041203 0.123162 
0.054846 -0.040718 0.123174 
0.054879 -0.040091 0.123199 
0.055123 -0.039320 0.123239 
0.055366 -0.038550 0.123277 
0.056658 -0.037065 0.123388 
0.056901 -0.036295 0.123428 
0.056830 -0.035739 0.123446 
0.056653 -0.035254 0.123457 
0.056476 -0.034769 0.123468 
0.056405 -0.034213 0.123487 
0.056228 -0.033729 0.123498 
0.055946 -0.033316 0.123502 
0.055875 -0.032760 0.123520 
0.055593 -0.032346 0.123525 
0.055312 -0.031933 0.123529 
0.055135 -0.031449 0.123539 
0.054853 -0.031035 0.123543 
0.054467 -0.030694 0.123541 
0.054080 -0.030352 0.123538 
0.053904 -0.029867 0.123549 
0.053517 -0.029526 0.123546 
0.053341 -0.029041 0.123557 
0.053059 -0.028628 0.123562 
0.052777 -0.028215 0.123566 
0.052601 -0.027730 0.123576 
0.052319 -0.027317 0.123580 
0.052038 -0.026904 0.123584 
0.051756 -0.026491 0.123588 
0.051579 -0.026006 0.123600 
0.051088 -0.025736 0.123590 
0.050911 -0.025251 0.123601 
0.050735 -0.024767 0.123612 
0.050663 -0.024211 0.123631 
0.052795 -0.022154 0.123798 
0.052828 -0.021527 0.123823 
0.052442 -0.021185 0.123820 
0.060250 -0.012844 0.124368 
0.061353 -0.011488 0.124441 
0.062159 -0.010334 0.124501 
0.062372 -0.009584 0.124529 
0.062288 -0.009036 0.124544 
0.062402 -0.008354 0.124567 
0.062713 -0.007537 0.124601 
0.062630 -0.006989 0.124615 
0.062842 -0.006239 0.124644 
0.063253 -0.005354 0.124683 
0.063268 -0.004739 0.124702 
0.063283 -0.004124 0.124720 
0.063496 -0.003374 0.124750 
0.063808 -0.002557 0.124784 
0.063823 -0.001942 0.124802 
0.063838 -0.001327 0.124821 
0.063853 -0.000711 0.124840 
0.063868 -0.000096 0.124859 
0.063883 0.000519 0.124878 
0.063898 0.001134 0.124897 
0.063913 0.001749 0.124916 
0.063928 0.002364 0.124936 
0.063844 0.002912 0.124949 
0.063859 0.003527 0.124968 
0.063875 0.004143 0.124987 
0.063791 0.004690 0.125001 
0.063806 0.005306 0.125021 
0.063722 0.005853 0.125035 
0.063737 0.006469 0.125053 
0.063653 0.007017 0.125067 
0.063569 0.007564 0.125082 
0.063486 0.008112 0.125095 
0.063501 0.008727 0.125114 
0.063318 0.009208 0.125124 
0.063234 0.009756 0.125137 
0.063150 0.010304 0.125152 
0.063067 0.010851 0.125166 
0.062983 0.011399 0.125179 
0.062701 0.011812 0.125183 
0.062617 0.012360 0.125198 
0.062435 0.012841 0.125206 
0.062252 0.013321 0.125216 
0.062069 0.013802 0.125225 
0.061985 0.014349 0.125239 
0.061803 0.014830 0.125248 
0.061620 0.015311 0.125257 
0.061437 0.015791 0.125266 
0.061156 0.016204 0.125270 
0.060874 0.016617 0.125274 
0.060593 0.017031 0.125278 
0.060311 0.017444 0.125282 
0.059931 0.017789 0.125282 
0.059649 0.018203 0.125286 
0.059368 0.018616 0.125290 
0.058987 0.018962 0.125289 
0.058508 0.019240 0.125284 
0.058127 0.019586 0.125283 
0.057747 0.019932 0.125281 
0.057268 0.020210 0.125276 
0.056887 0.020556 0.125275 
0.056408 0.020835 0.125269 
0.056027 0.021180 0.125268 
0.055647 0.021526 0.125267 
0.055365 0.021939 0.125271 
0.054886 0.022218 0.125266 
0.054703 0.022698 0.125275 
0.054323 0.023044 0.125274 
0.054041 0.023457 0.125278 
0.053364 0.023601 0.125262 
0.052885 0.023880 0.125257 
0.052406 0.024158 0.125250 
0.051926 0.024437 0.125245 
0.051150 0.024513 0.125225 
0.050374 0.024590 0.125203 
0.049796 0.024801 0.125193 
0.049317 0.025079 0.125187 
0.048343 0.025021 0.125156 
0.047666 0.025165 0.125140 
0.046791 0.025174 0.125115 
0.046114 0.025318 0.125099 
0.045239 0.025327 0.125073 
0.044760 0.025605 0.125068 
0.043786 0.025547 0.125037 
0.043010 0.025624 0.125016 
0.042135 0.025633 0.124990 
0.040865 0.025372 0.124945 
0.039397 0.024978 0.124890 
0.038324 0.024852 0.124854 
0.037845 0.025131 0.124848 
0.036673 0.024938 0.124808 
0.035205 0.024543 0.124753 
0.033935 0.024283 0.124707 
0.033258 0.024426 0.124691 
0.077407 -0.087363 0.123051 
0.078175 -0.086236 0.123125 
0.078943 -0.085108 0.123199 
0.080445 -0.083481 0.123322 
0.080164 -0.083067 0.123326 
0.079672 -0.082797 0.123317 
0.082329 -0.080384 0.123517 
0.083306 -0.079113 0.123606 
0.083549 -0.078343 0.123645 
0.083897 -0.077501 0.123691 
0.083931 -0.076873 0.123716 
0.084069 -0.076174 0.123747 
0.084102 -0.075547 0.123773 
0.084135 -0.074919 0.123798 
0.084378 -0.074149 0.123838 
0.084621 -0.073379 0.123876 
0.084760 -0.072680 0.123909 
0.084898 -0.071981 0.123940 
0.085036 -0.071282 0.123973 
0.084964 -0.070726 0.123991 
0.084997 -0.070098 0.124016 
0.084821 -0.069614 0.124027 
0.084854 -0.068986 0.124052 
0.084782 -0.068430 0.124070 
0.084606 -0.067946 0.124082 
0.084429 -0.067461 0.124093 
0.084252 -0.066976 0.124103 
0.084076 -0.066492 0.124115 
0.083794 -0.066079 0.124119 
0.083513 -0.065666 0.124123 
0.083231 -0.065252 0.124127 
0.082845 -0.064911 0.124124 
0.082563 -0.064497 0.124128 
0.082177 -0.064156 0.124126 
0.081790 -0.063814 0.124123 
0.081508 -0.063401 0.124127 
0.081122 -0.063059 0.124124 
0.080631 -0.062789 0.124114 
0.080244 -0.062447 0.124111 
0.079753 -0.062177 0.124101 
0.079366 -0.061835 0.124098 
0.078980 -0.061493 0.124096 
0.078488 -0.061223 0.124085 
0.077997 -0.060953 0.124075 
0.077505 -0.060683 0.124066 
0.077014 -0.060412 0.124055 
0.076522 -0.060142 0.124046 
0.076031 -0.059872 0.124036 
0.075644 -0.059530 0.124033 
0.075048 -0.059331 0.124016 
0.074662 -0.058990 0.124013 
0.074275 -0.058648 0.124010 
0.073889 -0.058306 0.124007 
0.073607 -0.057893 0.124011 
0.073325 -0.057480 0.124015 
0.073149 -0.056995 0.124027 
0.072867 -0.056582 0.124031 
0.072586 -0.056169 0.124035 
0.072409 -0.055684 0.124046 
0.072127 -0.055271 0.124050 
0.071951 -0.054787 0.124061 
0.071669 -0.054373 0.124065 
0.071388 -0.053960 0.124069 
0.071106 -0.053547 0.124073 
0.070825 -0.053134 0.124077 
0.070438 -0.052792 0.124074 
0.070052 -0.052450 0.124072 
0.069665 -0.052109 0.124069 
0.069278 -0.051767 0.124066 
0.068892 -0.051425 0.124063 
0.068610 -0.051012 0.124067 
0.068119 -0.050742 0.124057 
0.067732 -0.050400 0.124055 
0.067346 -0.050058 0.124051 
0.066960 -0.049717 0.124048 
0.066573 -0.049375 0.124046 
0.066291 -0.048962 0.124050 
0.065800 -0.048692 0.124039 
0.065413 -0.048350 0.124037 
0.064922 -0.048080 0.124027 
0.064536 -0.047738 0.124024 
0.064149 -0.047396 0.124021 
0.063658 -0.047126 0.124011 
0.063271 -0.046784 0.124008 
0.062885 -0.046442 0.124005 
0.062393 -0.046172 0.123995 
0.061902 -0.045902 0.123986 
0.061515 -0.045560 0.123983 
0.061024 -0.045290 0.123973 
0.060532 -0.045020 0.123963 
0.060041 -0.044749 0.123953 
0.059444 -0.044551 0.123936 
0.058848 -0.044352 0.123919 
0.058357 -0.044081 0.123909 
0.057760 -0.043883 0.123892 
0.057269 -0.043612 0.123883 
0.056777 -0.043342 0.123872 
0.056286 -0.043072 0.123863 
0.055899 -0.042730 0.123859 
0.055408 -0.042460 0.123850 
0.055126 -0.042047 0.123854 
0.054740 -0.041705 0.123851 
0.054249 -0.041435 0.123841 
0.054177 -0.040879 0.123859 
0.053895 -0.040465 0.123863 
0.054033 -0.039766 0.123896 
0.054277 -0.038996 0.123934 
0.054625 -0.038154 0.123981 
0.054868 -0.037384 0.124020 
0.055426 -0.036399 0.124080 
0.055669 -0.035629 0.124119 
0.055597 -0.035073 0.124137 
0.055315 -0.034660 0.124141 
0.055139 -0.034175 0.124152 
0.055067 -0.033619 0.124170 
0.054785 -0.033206 0.124174 
0.054504 -0.032793 0.124178 
0.054117 -0.032451 0.124176 
0.054046 -0.031895 0.124194 
0.053659 -0.031553 0.124191 
0.053273 -0.031211 0.124188 
0.053096 -0.030727 0.124199 
0.052919 -0.030242 0.124210 
0.052638 -0.029829 0.124214 
0.052461 -0.029344 0.124226 
0.052075 -0.029003 0.124223 
0.051688 -0.028661 0.124219 
0.051512 -0.028176 0.124231 
0.051230 -0.027763 0.124235 
0.050948 -0.027350 0.124239 
0.050457 -0.027080 0.124230 
0.050280 -0.026595 0.124240 
0.050209 -0.026039 0.124259 
0.050137 -0.025483 0.124277 
0.049855 -0.025070 0.124281 
0.049889 -0.024442 0.124306 
0.049712 -0.023958 0.124317 
0.051634 -0.022044 0.124469 
0.051562 -0.021488 0.124486 
0.054180 -0.017891 0.124730 
0.055245 -0.016562 0.124819 
0.056051 -0.015408 0.124877 
0.060531 -0.011147 0.125134 
0.061238 -0.010060 0.125187 
0.061253 -0.009445 0.125206 
0.061466 -0.008695 0.125235 
0.061976 -0.007744 0.125278 
0.061991 -0.007128 0.125297 
0.062006 -0.006513 0.125316 
0.062120 -0.005831 0.125340 
0.062530 -0.004946 0.125378 
0.062545 -0.004331 0.125397 
0.062758 -0.003581 0.125425 
0.062971 -0.002831 0.125454 
0.063085 -0.002149 0.125478 
0.063100 -0.001533 0.125497 
0.063115 -0.000918 0.125515 
0.063130 -0.000303 0.125534 
0.063244 0.000379 0.125558 
0.063062 0.000860 0.125566 
0.063077 0.001475 0.125585 
0.063092 0.002090 0.125604 
0.063107 0.002705 0.125623 
0.063023 0.003253 0.125637 
0.063038 0.003869 0.125655 
0.062954 0.004416 0.125669 
0.062871 0.004964 0.125684 
0.062787 0.005512 0.125697 
0.062802 0.006127 0.125716 
0.062520 0.006540 0.125720 
0.062733 0.007290 0.125749 
0.062550 0.007771 0.125758 
0.062467 0.008319 0.125772 
0.062383 0.008866 0.125785 
0.062200 0.009347 0.125795 
0.062215 0.009962 0.125814 
0.062230 0.010577 0.125832 
0.062146 0.011125 0.125846 
0.061964 0.011606 0.125855 
0.061781 0.012086 0.125864 
0.061598 0.012567 0.125873 
0.061515 0.013114 0.125887 
0.061332 0.013595 0.125895 
0.061248 0.014143 0.125910 
0.061065 0.014623 0.125918 
0.060883 0.015104 0.125928 
0.060601 0.015517 0.125932 
0.060418 0.015997 0.125941 
0.060137 0.016411 0.125945 
0.059855 0.016824 0.125950 
0.059574 0.017237 0.125954 
0.059193 0.017583 0.125952 
0.058912 0.017996 0.125957 
0.058531 0.018342 0.125955 
0.058052 0.018620 0.125950 
0.057671 0.018966 0.125949 
0.057291 0.019312 0.125949 
0.056713 0.019523 0.125938 
0.056233 0.019801 0.125933 
0.055853 0.020147 0.125931 
0.055275 0.020358 0.125921 
0.054795 0.020637 0.125915 
0.054118 0.020781 0.125899 
0.053738 0.021127 0.125899 
0.053357 0.021472 0.125898 
0.053076 0.021886 0.125902 
0.052695 0.022231 0.125902 
0.052414 0.022645 0.125906 
0.051638 0.022721 0.125885 
0.051356 0.023134 0.125889 
0.050679 0.023278 0.125874 
0.050101 0.023489 0.125863 
0.049523 0.023700 0.125852 
0.048648 0.023709 0.125827 
0.048169 0.023988 0.125822 
0.047195 0.023930 0.125792 
0.046518 0.024073 0.125776 
0.045643 0.024082 0.125751 
0.044867 0.024159 0.125730 
0.044091 0.024235 0.125710 
0.043611 0.024514 0.125704 
0.042835 0.024590 0.125684 
0.042158 0.024734 0.125668 
0.040196 0.024002 0.125590 
0.038925 0.023742 0.125545 
0.038149 0.023819 0.125524 
0.037571 0.024030 0.125514 
0.035510 0.023231 0.125429 
0.034931 0.023442 0.125419 
0.033859 0.023316 0.125384 
0.076390 -0.088366 0.123695 
0.077577 -0.086952 0.123796 
0.078555 -0.085682 0.123884 
0.078798 -0.084911 0.123922 
0.080510 -0.083141 0.124059 
0.081383 -0.081942 0.124139 
0.082780 -0.080386 0.124254 
0.083548 -0.079258 0.124328 
0.083896 -0.078416 0.124373 
0.084244 -0.077574 0.124419 
0.084382 -0.076875 0.124451 
0.084520 -0.076177 0.124483 
0.084449 -0.075620 0.124501 
0.084377 -0.075064 0.124519 
0.084410 -0.074437 0.124544 
0.084548 -0.073738 0.124576 
0.084582 -0.073111 0.124601 
0.084720 -0.072412 0.124632 
0.084753 -0.071784 0.124657 
0.084891 -0.071085 0.124689 
0.084819 -0.070529 0.124708 
0.084748 -0.069973 0.124725 
0.084676 -0.069417 0.124743 
0.084604 -0.068861 0.124761 
0.084533 -0.068305 0.124779 
0.084356 -0.067820 0.124790 
0.084179 -0.067336 0.124802 
0.083898 -0.066923 0.124806 
0.083721 -0.066438 0.124816 
0.083440 -0.066025 0.124820 
0.083053 -0.065683 0.124818 
0.082771 -0.065270 0.124822 
0.082490 -0.064857 0.124826 
0.082103 -0.064515 0.124823 
0.081822 -0.064102 0.124827 
0.081435 -0.063760 0.124824 
0.081049 -0.063418 0.124822 
0.080662 -0.063077 0.124818 
0.080276 -0.062735 0.124816 
0.079784 -0.062465 0.124806 
0.079398 -0.062123 0.124803 
0.079011 -0.061781 0.124800 
0.078520 -0.061511 0.124791 
0.078133 -0.061169 0.124787 
0.077537 -0.060971 0.124771 
0.077151 -0.060629 0.124768 
0.076659 -0.060359 0.124759 
0.076168 -0.060088 0.124749 
0.075676 -0.059818 0.124739 
0.075185 -0.059548 0.124729 
0.074693 -0.059277 0.124719 
0.074307 -0.058936 0.124717 
0.074025 -0.058523 0.124721 
0.073639 -0.058181 0.124718 
0.073357 -0.057768 0.124722 
0.073076 -0.057354 0.124726 
0.072794 -0.056941 0.124730 
0.072513 -0.056528 0.124734 
0.072336 -0.056044 0.124746 
0.072159 -0.055559 0.124756 
0.071983 -0.055074 0.124768 
0.071701 -0.054661 0.124772 
0.071419 -0.054248 0.124776 
0.071138 -0.053835 0.124780 
0.070751 -0.053493 0.124777 
0.070470 -0.053080 0.124781 
0.070083 -0.052738 0.124779 
0.069697 -0.052397 0.124775 
0.069415 -0.051983 0.124779 
0.068924 -0.051713 0.124770 
0.068537 -0.051371 0.124767 
0.068256 -0.050958 0.124771 
0.067869 -0.050617 0.124768 
0.067483 -0.050275 0.124765 
0.067096 -0.049933 0.124762 
0.066710 -0.049591 0.124760 
0.066323 -0.049250 0.124756 
0.065937 -0.048908 0.124754 
0.065550 -0.048566 0.124751 
0.065059 -0.048296 0.124741 
0.064777 -0.047883 0.124746 
0.064391 -0.047541 0.124742 
0.064004 -0.047199 0.124740 
0.063618 -0.046858 0.124737 
0.063126 -0.046587 0.124727 
0.062740 -0.046246 0.124724 
0.062248 -0.045975 0.124714 
0.061757 -0.045705 0.124705 
0.061265 -0.045435 0.124695 
0.060774 -0.045165 0.124686 
0.060283 -0.044894 0.124675 
0.059686 -0.044695 0.124659 
0.059090 -0.044497 0.124642 
0.058493 -0.044298 0.124625 
0.058107 -0.043956 0.124622 
0.057511 -0.043757 0.124606 
0.057019 -0.043487 0.124595 
0.056423 -0.043288 0.124580 
0.055931 -0.043018 0.124569 
0.055545 -0.042676 0.124567 
0.054949 -0.042477 0.124550 
0.054562 -0.042136 0.124547 
0.054071 -0.041865 0.124537 
0.053474 -0.041667 0.124521 
0.052983 -0.041396 0.124510 
0.052806 -0.040912 0.124522 
0.052315 -0.040641 0.124512 
0.052558 -0.039871 0.124551 
0.053116 -0.038886 0.124610 
0.053883 -0.037759 0.124684 
0.053917 -0.037131 0.124709 
0.053845 -0.036575 0.124726 
0.054193 -0.035733 0.124773 
0.054016 -0.035249 0.124784 
0.053945 -0.034693 0.124802 
0.053873 -0.034137 0.124820 
0.053382 -0.033866 0.124810 
0.053310 -0.033310 0.124828 
0.053028 -0.032897 0.124832 
0.052956 -0.032341 0.124850 
0.052570 -0.031999 0.124847 
0.052393 -0.031515 0.124858 
0.052112 -0.031102 0.124862 
0.051830 -0.030689 0.124866 
0.051654 -0.030204 0.124878 
0.051162 -0.029934 0.124867 
0.050776 -0.029592 0.124865 
0.050389 -0.029250 0.124862 
0.050003 -0.028908 0.124859 
0.049826 -0.028424 0.124870 
0.049440 -0.028082 0.124868 
0.048843 -0.027883 0.124851 
0.048667 -0.027399 0.124862 
0.048595 -0.026843 0.124880 
0.047789 -0.026787 0.124849 
0.047717 -0.026231 0.124867 
0.054537 -0.015539 0.125540 
0.059131 -0.010595 0.125818 
0.060135 -0.009307 0.125884 
0.060546 -0.008422 0.125922 
0.060758 -0.007672 0.125951 
0.060872 -0.006990 0.125974 
0.061085 -0.006240 0.126002 
0.061397 -0.005422 0.126035 
0.061412 -0.004807 0.126054 
0.061625 -0.004057 0.126083 
0.062036 -0.003173 0.126121 
0.062150 -0.002490 0.126144 
0.062264 -0.001808 0.126167 
0.062279 -0.001193 0.126186 
0.062195 -0.000645 0.126199 
0.062408 0.000105 0.126228 
0.062225 0.000586 0.126236 
0.062141 0.001134 0.126251 
0.062057 0.001681 0.126265 
0.061974 0.002229 0.126278 
0.062088 0.002912 0.126301 
0.062004 0.003460 0.126315 
0.061920 0.004007 0.126329 
0.061638 0.004421 0.126333 
0.061555 0.004968 0.126346 
0.061471 0.005516 0.126360 
0.061387 0.006064 0.126375 
0.061303 0.006612 0.126388 
0.061417 0.007295 0.126411 
0.061333 0.007842 0.126425 
0.061250 0.008390 0.126439 
0.061364 0.009073 0.126462 
0.061379 0.009688 0.126481 
0.061196 0.010169 0.126490 
0.061112 0.010716 0.126504 
0.061127 0.011332 0.126522 
0.060945 0.011812 0.126531 
0.060663 0.012225 0.126535 
0.060480 0.012706 0.126545 
0.060397 0.013254 0.126558 
0.060313 0.013801 0.126572 
0.060130 0.014282 0.126580 
0.059947 0.014762 0.126590 
0.059666 0.015176 0.126594 
0.059483 0.015656 0.126602 
0.059202 0.016069 0.126606 
0.058920 0.016482 0.126610 
0.058638 0.016896 0.126614 
0.058258 0.017241 0.126614 
0.057878 0.017587 0.126613 
0.057596 0.018000 0.126617 
0.057216 0.018346 0.126617 
0.056736 0.018625 0.126612 
0.056158 0.018836 0.126601 
0.055679 0.019114 0.126596 
0.055100 0.019325 0.126585 
0.054621 0.019604 0.126579 
0.054142 0.019882 0.126574 
0.053563 0.020093 0.126563 
0.052985 0.020305 0.126554 
0.052407 0.020516 0.126543 
0.052027 0.020862 0.126542 
0.051547 0.021140 0.126536 
0.051068 0.021418 0.126531 
0.050786 0.021832 0.126535 
0.050208 0.022043 0.126524 
0.049630 0.022254 0.126515 
0.049249 0.022600 0.126513 
0.048177 0.022474 0.126479 
0.047697 0.022753 0.126474 
0.047218 0.023031 0.126468 
0.045948 0.022771 0.126424 
0.045270 0.022915 0.126409 
0.044494 0.022991 0.126389 
0.043916 0.023202 0.126378 
0.043239 0.023346 0.126363 
0.042166 0.023220 0.126329 
0.040896 0.022960 0.126284 
0.039131 0.022363 0.126216 
0.038751 0.022709 0.126215 
0.037777 0.022651 0.126186 
0.035517 0.021717 0.126093 
0.035533 0.022332 0.126112 
0.034361 0.022139 0.126073 
0.033684 0.022283 0.126057 
0.076560 -0.087955 0.124441 
0.077748 -0.086541 0.124542 
0.078305 -0.085557 0.124601 
0.081067 -0.083072 0.124804 
0.080680 -0.082730 0.124801 
0.082602 -0.080816 0.124949 
0.083580 -0.079546 0.125036 
0.084138 -0.078561 0.125095 
0.084381 -0.077791 0.125134 
0.084624 -0.077020 0.125172 
0.084657 -0.076393 0.125197 
0.084795 -0.075694 0.125229 
0.084724 -0.075138 0.125246 
0.084757 -0.074510 0.125272 
0.084685 -0.073954 0.125289 
0.084613 -0.073398 0.125307 
0.084752 -0.072700 0.125339 
0.084680 -0.072143 0.125356 
0.084608 -0.071587 0.125374 
0.084641 -0.070960 0.125398 
0.084570 -0.070404 0.125416 
0.084498 -0.069848 0.125434 
0.084531 -0.069220 0.125459 
0.084355 -0.068736 0.125471 
0.084178 -0.068251 0.125481 
0.084001 -0.067767 0.125493 
0.083825 -0.067282 0.125503 
0.083543 -0.066869 0.125507 
0.083366 -0.066384 0.125519 
0.082980 -0.066042 0.125515 
0.082698 -0.065629 0.125519 
0.082417 -0.065216 0.125523 
0.082030 -0.064874 0.125521 
0.081749 -0.064461 0.125525 
0.081362 -0.064120 0.125522 
0.080976 -0.063778 0.125520 
0.080694 -0.063365 0.125524 
0.080308 -0.063023 0.125521 
0.079816 -0.062753 0.125511 
0.079430 -0.062411 0.125508 
0.079043 -0.062069 0.125506 
0.078552 -0.061799 0.125496 
0.078165 -0.061457 0.125493 
0.077674 -0.061187 0.125483 
0.077182 -0.060917 0.125474 
0.076691 -0.060646 0.125464 
0.076199 -0.060376 0.125454 
0.075708 -0.060106 0.125445 
0.075322 -0.059764 0.125443 
0.074830 -0.059494 0.125433 
0.074339 -0.059224 0.125423 
0.074057 -0.058810 0.125428 
0.073671 -0.058469 0.125424 
0.073284 -0.058127 0.125421 
0.073003 -0.057714 0.125425 
0.072826 -0.057229 0.125437 
0.072544 -0.056816 0.125441 
0.072263 -0.056403 0.125445 
0.072086 -0.055918 0.125456 
0.071910 -0.055434 0.125467 
0.071628 -0.055021 0.125471 
0.071451 -0.054536 0.125482 
0.071065 -0.054194 0.125479 
0.070783 -0.053781 0.125483 
0.070502 -0.053368 0.125487 
0.070115 -0.053026 0.125485 
0.069729 -0.052684 0.125482 
0.069447 -0.052271 0.125486 
0.068956 -0.052001 0.125476 
0.068569 -0.051659 0.125473 
0.068183 -0.051318 0.125471 
0.067901 -0.050904 0.125475 
0.067515 -0.050563 0.125472 
0.067233 -0.050150 0.125476 
0.066847 -0.049808 0.125474 
0.066355 -0.049538 0.125464 
0.066074 -0.049124 0.125468 
0.065687 -0.048783 0.125465 
0.065301 -0.048441 0.125463 
0.064914 -0.048099 0.125459 
0.064632 -0.047686 0.125463 
0.064246 -0.047344 0.125461 
0.063754 -0.047074 0.125452 
0.063368 -0.046732 0.125448 
0.062877 -0.046462 0.125439 
0.062385 -0.046192 0.125429 
0.061894 -0.045922 0.125420 
0.061507 -0.045580 0.125416 
0.061016 -0.045310 0.125407 
0.060419 -0.045111 0.125391 
0.059928 -0.044840 0.125381 
0.059332 -0.044642 0.125364 
0.058840 -0.044371 0.125355 
0.058244 -0.044173 0.125339 
0.057752 -0.043902 0.125329 
0.057156 -0.043703 0.125312 
0.056560 -0.043505 0.125295 
0.056068 -0.043234 0.125286 
0.055577 -0.042964 0.125276 
0.054980 -0.042765 0.125260 
0.054489 -0.042495 0.125251 
0.053893 -0.042296 0.125234 
0.053296 -0.042097 0.125218 
0.052700 -0.041898 0.125201 
0.052313 -0.041557 0.125198 
0.051612 -0.041429 0.125174 
0.051330 -0.041016 0.125178 
0.051154 -0.040532 0.125190 
0.050872 -0.040118 0.125194 
0.052375 -0.038491 0.125315 
0.052198 -0.038006 0.125325 
0.052966 -0.036879 0.125399 
0.052894 -0.036323 0.125417 
0.052927 -0.035695 0.125441 
0.052751 -0.035210 0.125452 
0.052574 -0.034726 0.125463 
0.052502 -0.034170 0.125481 
0.052326 -0.033685 0.125492 
0.051939 -0.033343 0.125489 
0.051553 -0.033002 0.125487 
0.051586 -0.032374 0.125511 
0.051199 -0.032033 0.125509 
0.050918 -0.031619 0.125513 
0.050741 -0.031135 0.125523 
0.050355 -0.030793 0.125521 
0.049968 -0.030451 0.125518 
0.049687 -0.030038 0.125522 
0.049195 -0.029768 0.125512 
0.048599 -0.029569 0.125496 
0.047792 -0.029513 0.125466 
0.047301 -0.029243 0.125456 
0.046810 -0.028973 0.125446 
0.045689 -0.029131 0.125396 
0.057701 -0.011274 0.126465 
0.057221 -0.010995 0.126460 
0.058028 -0.009841 0.126517 
0.058735 -0.008755 0.126568 
0.059541 -0.007601 0.126625 
0.060150 -0.006581 0.126671 
0.060165 -0.005966 0.126690 
0.060575 -0.005082 0.126727 
0.060492 -0.004534 0.126741 
0.060803 -0.003717 0.126774 
0.061016 -0.002967 0.126802 
0.061130 -0.002284 0.126824 
0.061244 -0.001602 0.126847 
0.061457 -0.000852 0.126876 
0.061472 -0.000236 0.126894 
0.061388 0.000311 0.126907 
0.061107 0.000725 0.126911 
0.060924 0.001205 0.126921 
0.060840 0.001753 0.126934 
0.060954 0.002435 0.126958 
0.060871 0.002983 0.126971 
0.060886 0.003599 0.126989 
0.060802 0.004146 0.127003 
0.060718 0.004694 0.127016 
0.060733 0.005309 0.127035 
0.060649 0.005857 0.127049 
0.060467 0.006338 0.127057 
0.060482 0.006953 0.127076 
0.060398 0.007501 0.127090 
0.060413 0.008116 0.127108 
0.060428 0.008731 0.127127 
0.060246 0.009212 0.127135 
0.060063 0.009692 0.127145 
0.060177 0.010375 0.127168 
0.060093 0.010923 0.127180 
0.060108 0.011538 0.127199 
0.059926 0.012018 0.127208 
0.059743 0.012499 0.127217 
0.059461 0.012912 0.127221 
0.059377 0.013460 0.127235 
0.059195 0.013940 0.127243 
0.059012 0.014421 0.127252 
0.058731 0.014834 0.127257 
0.058449 0.015247 0.127261 
0.058167 0.015660 0.127265 
0.057886 0.016074 0.127269 
0.057505 0.016419 0.127268 
0.057125 0.016765 0.127268 
0.056646 0.017044 0.127262 
0.056265 0.017389 0.127261 
0.055786 0.017668 0.127256 
0.055306 0.017946 0.127250 
0.054926 0.018292 0.127250 
0.054447 0.018571 0.127245 
0.054066 0.018917 0.127244 
0.053389 0.019060 0.127229 
0.052811 0.019271 0.127219 
0.052331 0.019550 0.127213 
0.051852 0.019828 0.127208 
0.051373 0.020107 0.127202 
0.050893 0.020385 0.127197 
0.050513 0.020731 0.127197 
0.050033 0.021009 0.127191 
0.049356 0.021153 0.127176 
0.048877 0.021432 0.127171 
0.047804 0.021306 0.127137 
0.047325 0.021585 0.127131 
0.046549 0.021661 0.127111 
0.045081 0.021266 0.127058 
0.044799 0.021679 0.127062 
0.044221 0.021890 0.127053 
0.043643 0.022101 0.127043 
0.042867 0.022178 0.127023 
0.041398 0.021783 0.126969 
0.040820 0.021994 0.126960 
0.039648 0.021801 0.126920 
0.037785 0.021137 0.126848 
0.036613 0.020944 0.126810 
0.035343 0.020683 0.126766 
0.034863 0.020962 0.126761 
0.034582 0.021375 0.126765 
0.076730 -0.087544 0.125187 
0.077603 -0.086345 0.125266 
0.081099 -0.083359 0.125515 
0.081237 -0.082661 0.125546 
0.082319 -0.081319 0.125639 
0.083717 -0.079762 0.125751 
0.084170 -0.078849 0.125804 
0.084413 -0.078079 0.125842 
0.084656 -0.077308 0.125880 
0.084899 -0.076538 0.125917 
0.085037 -0.075839 0.125949 
0.084965 -0.075283 0.125967 
0.084999 -0.074655 0.125991 
0.084927 -0.074099 0.126009 
0.084855 -0.073543 0.126026 
0.084783 -0.072987 0.126044 
0.084712 -0.072431 0.126062 
0.084640 -0.071875 0.126080 
0.084463 -0.071391 0.126090 
0.084392 -0.070835 0.126108 
0.084425 -0.070207 0.126133 
0.084248 -0.069723 0.126144 
0.084176 -0.069166 0.126161 
0.084000 -0.068682 0.126173 
0.083928 -0.068126 0.126190 
0.083647 -0.067713 0.126194 
0.083470 -0.067228 0.126205 
0.083188 -0.066815 0.126209 
0.082907 -0.066402 0.126213 
0.082625 -0.065989 0.126218 
0.082239 -0.065647 0.126214 
0.081957 -0.065234 0.126218 
0.081676 -0.064821 0.126223 
0.081289 -0.064479 0.126220 
0.080903 -0.064137 0.126218 
0.080621 -0.063724 0.126222 
0.080234 -0.063382 0.126219 
0.079848 -0.063041 0.126217 
0.079461 -0.062699 0.126213 
0.078970 -0.062429 0.126204 
0.078584 -0.062087 0.126202 
0.078092 -0.061817 0.126192 
0.077706 -0.061475 0.126189 
0.077214 -0.061205 0.126180 
0.076723 -0.060934 0.126171 
0.076231 -0.060664 0.126161 
0.075845 -0.060322 0.126158 
0.075248 -0.060123 0.126142 
0.074757 -0.059853 0.126132 
0.074371 -0.059511 0.126130 
0.073984 -0.059170 0.126127 
0.073703 -0.058757 0.126131 
0.073316 -0.058415 0.126129 
0.073034 -0.058002 0.126133 
0.072753 -0.057589 0.126137 
0.072471 -0.057175 0.126141 
0.072295 -0.056691 0.126151 
0.072118 -0.056206 0.126163 
0.071836 -0.055793 0.126167 
0.071660 -0.055308 0.126177 
0.071378 -0.054895 0.126182 
0.071097 -0.054482 0.126186 
0.070815 -0.054069 0.126190 
0.070534 -0.053656 0.126194 
0.070147 -0.053314 0.126192 
0.069761 -0.052972 0.126188 
0.069374 -0.052631 0.126186 
0.068987 -0.052289 0.126183 
0.068601 -0.051947 0.126181 
0.068214 -0.051605 0.126177 
0.067828 -0.051264 0.126175 
0.067546 -0.050851 0.126179 
0.067265 -0.050437 0.126183 
0.066878 -0.050096 0.126180 
0.066492 -0.049754 0.126178 
0.066210 -0.049341 0.126182 
0.065824 -0.048999 0.126179 
0.065437 -0.048657 0.126176 
0.065051 -0.048316 0.126174 
0.064769 -0.047903 0.126178 
0.064383 -0.047561 0.126175 
0.063891 -0.047291 0.126166 
0.063505 -0.046949 0.126163 
0.063118 -0.046607 0.126160 
0.062627 -0.046337 0.126150 
0.062135 -0.046067 0.126141 
0.061644 -0.045796 0.126132 
0.061153 -0.045526 0.126123 
0.060661 -0.045256 0.126113 
0.060065 -0.045057 0.126096 
0.059468 -0.044858 0.126080 
0.059082 -0.044516 0.126078 
0.058486 -0.044318 0.126061 
0.057889 -0.044119 0.126045 
0.057398 -0.043848 0.126036 
0.056801 -0.043650 0.126020 
0.056205 -0.043451 0.126003 
0.055714 -0.043180 0.125993 
0.055117 -0.042982 0.125977 
0.054521 -0.042783 0.125961 
0.054029 -0.042513 0.125952 
0.053328 -0.042385 0.125928 
0.052732 -0.042186 0.125912 
0.052135 -0.041987 0.125896 
0.051539 -0.041789 0.125880 
0.051153 -0.041447 0.125876 
0.050871 -0.041034 0.125880 
0.050484 -0.040692 0.125878 
0.050203 -0.040279 0.125882 
0.050026 -0.039794 0.125893 
0.049955 -0.039238 0.125911 
0.049673 -0.038825 0.125915 
0.050231 -0.037840 0.125974 
0.050054 -0.037356 0.125984 
0.050927 -0.036157 0.126063 
0.051170 -0.035386 0.126102 
0.051098 -0.034830 0.126120 
0.051027 -0.034274 0.126136 
0.050745 -0.033861 0.126140 
0.050359 -0.033519 0.126138 
0.049972 -0.033178 0.126136 
0.049690 -0.032765 0.126140 
0.049409 -0.032351 0.126144 
0.049127 -0.031938 0.126148 
0.048741 -0.031597 0.126145 
0.048459 -0.031183 0.126149 
0.047863 -0.030985 0.126133 
0.047476 -0.030643 0.126130 
0.047090 -0.030301 0.126128 
0.046493 -0.030102 0.126111 
0.045792 -0.029975 0.126088 
0.055890 -0.011607 0.127114 
0.055707 -0.011126 0.127123 
0.057008 -0.009635 0.127202 
0.057023 -0.009020 0.127220 
0.057730 -0.007934 0.127271 
0.059130 -0.006375 0.127355 
0.059541 -0.005491 0.127392 
0.059556 -0.004876 0.127411 
0.059472 -0.004328 0.127423 
0.059586 -0.003645 0.127446 
0.059799 -0.002895 0.127474 
0.059814 -0.002280 0.127492 
0.060027 -0.001530 0.127520 
0.060240 -0.000780 0.127548 
0.060255 -0.000165 0.127566 
0.060270 0.000450 0.127584 
0.060087 0.000931 0.127593 
0.059905 0.001411 0.127601 
0.059821 0.001959 0.127615 
0.059935 0.002642 0.127638 
0.059950 0.003257 0.127656 
0.059866 0.003805 0.127670 
0.059585 0.004218 0.127674 
0.059600 0.004833 0.127692 
0.059615 0.005448 0.127710 
0.059630 0.006064 0.127729 
0.059546 0.006611 0.127741 
0.059463 0.007159 0.127755 
0.059379 0.007707 0.127768 
0.059394 0.008322 0.127786 
0.059409 0.008938 0.127805 
0.059424 0.009553 0.127823 
0.059340 0.010101 0.127837 
0.059059 0.010514 0.127841 
0.058975 0.011062 0.127855 
0.058891 0.011609 0.127867 
0.058709 0.012090 0.127877 
0.058625 0.012638 0.127890 
0.058343 0.013051 0.127894 
0.058062 0.013464 0.127898 
0.057681 0.013810 0.127897 
0.057400 0.014223 0.127901 
0.057019 0.014569 0.127901 
0.056540 0.014847 0.127896 
0.056258 0.015261 0.127900 
0.055680 0.015472 0.127890 
0.055596 0.016020 0.127904 
0.055117 0.016298 0.127898 
0.054835 0.016711 0.127902 
0.054356 0.016990 0.127897 
0.054074 0.017403 0.127901 
0.053595 0.017681 0.127896 
0.053116 0.017960 0.127890 
0.052636 0.018238 0.127885 
0.052256 0.018584 0.127885 
0.051776 0.018862 0.127879 
0.051198 0.019074 0.127870 
0.050620 0.019285 0.127860 
0.050338 0.019698 0.127864 
0.049661 0.019842 0.127849 
0.049083 0.020053 0.127839 
0.048307 0.020129 0.127819 
0.047729 0.020340 0.127809 
0.046656 0.020215 0.127776 
0.045979 0.020358 0.127761 
0.044906 0.020233 0.127728 
0.044427 0.020511 0.127723 
0.043552 0.020520 0.127698 
0.043270 0.020933 0.127702 
0.041011 0.019999 0.127613 
0.040531 0.020278 0.127608 
0.040250 0.020691 0.127612 
0.038682 0.020229 0.127554 
0.037115 0.019766 0.127498 
0.035845 0.019506 0.127456 
0.035267 0.019717 0.127445 
0.034688 0.019928 0.127435 
0.077563 -0.086076 0.125997 
0.081584 -0.082734 0.126278 
0.082141 -0.081749 0.126336 
0.083224 -0.080407 0.126427 
0.084201 -0.079137 0.126511 
0.084340 -0.078438 0.126543 
0.084793 -0.077525 0.126594 
0.084931 -0.076826 0.126625 
0.085069 -0.076127 0.126656 
0.085102 -0.075499 0.126681 
0.085030 -0.074943 0.126698 
0.085064 -0.074316 0.126722 
0.084992 -0.073760 0.126739 
0.084815 -0.073275 0.126751 
0.084743 -0.072719 0.126769 
0.084672 -0.072163 0.126785 
0.084495 -0.071679 0.126797 
0.084318 -0.071194 0.126807 
0.084247 -0.070638 0.126825 
0.084070 -0.070153 0.126835 
0.083894 -0.069669 0.126847 
0.083822 -0.069113 0.126864 
0.083645 -0.068628 0.126875 
0.083469 -0.068143 0.126886 
0.083292 -0.067659 0.126897 
0.083010 -0.067246 0.126901 
0.082834 -0.066761 0.126912 
0.082447 -0.066419 0.126909 
0.082166 -0.066006 0.126913 
0.081884 -0.065593 0.126918 
0.081602 -0.065180 0.126922 
0.081216 -0.064838 0.126918 
0.080829 -0.064496 0.126916 
0.080443 -0.064155 0.126913 
0.080161 -0.063742 0.126917 
0.079775 -0.063400 0.126915 
0.079283 -0.063130 0.126905 
0.078897 -0.062788 0.126903 
0.078510 -0.062446 0.126901 
0.078019 -0.062176 0.126891 
0.077632 -0.061834 0.126888 
0.077246 -0.061492 0.126886 
0.076650 -0.061294 0.126870 
0.076263 -0.060952 0.126867 
0.075772 -0.060682 0.126858 
0.075280 -0.060411 0.126848 
0.074789 -0.060141 0.126839 
0.074297 -0.059871 0.126829 
0.074016 -0.059458 0.126833 
0.073629 -0.059116 0.126831 
0.073243 -0.058774 0.126829 
0.073066 -0.058290 0.126839 
0.072785 -0.057876 0.126843 
0.072398 -0.057535 0.126841 
0.072222 -0.057050 0.126852 
0.072045 -0.056565 0.126862 
0.071763 -0.056152 0.126866 
0.071587 -0.055668 0.126878 
0.071410 -0.055183 0.126888 
0.071024 -0.054841 0.126886 
0.070742 -0.054428 0.126890 
0.070460 -0.054015 0.126894 
0.070179 -0.053602 0.126898 
0.069687 -0.053332 0.126889 
0.069406 -0.052918 0.126893 
0.069019 -0.052577 0.126890 
0.068528 -0.052306 0.126881 
0.068246 -0.051893 0.126885 
0.067860 -0.051552 0.126882 
0.067578 -0.051138 0.126886 
0.067192 -0.050797 0.126884 
0.066910 -0.050384 0.126888 
0.066524 -0.050042 0.126885 
0.066242 -0.049629 0.126889 
0.065961 -0.049216 0.126894 
0.065574 -0.048874 0.126890 
0.065188 -0.048532 0.126888 
0.064801 -0.048190 0.126886 
0.064415 -0.047849 0.126883 
0.064028 -0.047507 0.126880 
0.063537 -0.047237 0.126871 
0.063150 -0.046895 0.126869 
0.062659 -0.046625 0.126859 
0.062167 -0.046354 0.126849 
0.061781 -0.046013 0.126847 
0.061289 -0.045742 0.126838 
0.060798 -0.045472 0.126828 
0.060306 -0.045202 0.126818 
0.059710 -0.045003 0.126802 
0.059219 -0.044733 0.126794 
0.058727 -0.044462 0.126784 
0.058026 -0.044335 0.126761 
0.057535 -0.044065 0.126751 
0.056938 -0.043866 0.126735 
0.056342 -0.043667 0.126720 
0.055745 -0.043468 0.126704 
0.055254 -0.043198 0.126694 
0.054658 -0.042999 0.126678 
0.054061 -0.042800 0.126662 
0.053465 -0.042602 0.126646 
0.052764 -0.042474 0.126623 
0.052167 -0.042275 0.126607 
0.051676 -0.042005 0.126597 
0.051185 -0.041735 0.126589 
0.050798 -0.041393 0.126586 
0.050412 -0.041051 0.126583 
0.049920 -0.040781 0.126574 
0.049534 -0.040439 0.126572 
0.049252 -0.040026 0.126576 
0.048865 -0.039685 0.126572 
0.048689 -0.039200 0.126584 
0.048407 -0.038787 0.126588 
0.048336 -0.038231 0.126605 
0.048474 -0.037532 0.126636 
0.047982 -0.037261 0.126627 
0.047386 -0.037063 0.126611 
0.047629 -0.036292 0.126649 
0.047767 -0.035593 0.126679 
0.048745 -0.034323 0.126764 
0.048463 -0.033910 0.126768 
0.048077 -0.033568 0.126766 
0.047375 -0.033441 0.126743 
0.047199 -0.032956 0.126754 
0.046917 -0.032543 0.126758 
0.046216 -0.032415 0.126735 
0.046039 -0.031931 0.126746 
0.044708 -0.032232 0.126683 
0.055593 -0.009699 0.127870 
0.057517 -0.006574 0.128012 
0.058422 -0.005352 0.128071 
0.058635 -0.004602 0.128098 
0.058749 -0.003920 0.128121 
0.058764 -0.003304 0.128139 
0.058681 -0.002756 0.128152 
0.058894 -0.002007 0.128180 
0.058711 -0.001526 0.128188 
0.058924 -0.000776 0.128215 
0.059236 0.000041 0.128247 
0.058954 0.000454 0.128251 
0.058969 0.001070 0.128269 
0.058984 0.001685 0.128287 
0.058901 0.002233 0.128301 
0.058916 0.002848 0.128319 
0.058832 0.003396 0.128332 
0.058847 0.004011 0.128350 
0.058664 0.004491 0.128359 
0.058482 0.004972 0.128368 
0.058695 0.005722 0.128395 
0.058512 0.006202 0.128404 
0.058527 0.006818 0.128422 
0.058542 0.007433 0.128440 
0.058458 0.007981 0.128453 
0.058276 0.008461 0.128462 
0.058291 0.009076 0.128479 
0.058207 0.009624 0.128493 
0.058024 0.010105 0.128501 
0.057941 0.010653 0.128515 
0.057758 0.011133 0.128523 
0.057575 0.011614 0.128533 
0.057393 0.012094 0.128541 
0.057012 0.012440 0.128541 
0.056829 0.012921 0.128549 
0.056350 0.013199 0.128544 
0.056068 0.013612 0.128548 
0.055787 0.014025 0.128552 
0.055505 0.014438 0.128556 
0.055026 0.014717 0.128552 
0.054744 0.015130 0.128556 
0.054364 0.015476 0.128555 
0.053983 0.015822 0.128555 
0.053405 0.016033 0.128545 
0.053321 0.016581 0.128559 
0.052842 0.016859 0.128553 
0.052165 0.017003 0.128538 
0.051883 0.017416 0.128542 
0.051404 0.017695 0.128538 
0.050925 0.017973 0.128532 
0.050346 0.018184 0.128523 
0.049768 0.018395 0.128513 
0.049585 0.018876 0.128521 
0.047721 0.018211 0.128451 
0.047737 0.018826 0.128470 
0.045378 0.017825 0.128377 
0.045294 0.018373 0.128390 
0.044617 0.018517 0.128375 
0.044435 0.018997 0.128385 
0.044054 0.019343 0.128383 
0.042981 0.019217 0.128350 
0.042304 0.019361 0.128336 
0.041429 0.019370 0.128313 
0.039763 0.018840 0.128252 
0.038097 0.018311 0.128192 
0.037815 0.018724 0.128196 
0.036940 0.018733 0.128172 
0.035076 0.018068 0.128102 
0.034795 0.018481 0.128106 
0.081615 -0.083022 0.126988 
0.081754 -0.082323 0.127019 
0.082836 -0.080981 0.127109 
0.083919 -0.079639 0.127200 
0.084371 -0.078726 0.127250 
0.084615 -0.077956 0.127288 
0.084962 -0.077114 0.127332 
0.084996 -0.076486 0.127357 
0.085134 -0.075787 0.127387 
0.085062 -0.075231 0.127405 
0.085095 -0.074604 0.127429 
0.085024 -0.074048 0.127446 
0.084952 -0.073492 0.127464 
0.084775 -0.073007 0.127474 
0.084704 -0.072451 0.127492 
0.084527 -0.071966 0.127502 
0.084350 -0.071482 0.127514 
0.084174 -0.070997 0.127524 
0.083997 -0.070513 0.127535 
0.083820 -0.070028 0.127546 
0.083644 -0.069543 0.127557 
0.083467 -0.069059 0.127567 
0.083290 -0.068574 0.127577 
0.083114 -0.068090 0.127589 
0.082832 -0.067676 0.127593 
0.082551 -0.067263 0.127597 
0.082374 -0.066779 0.127608 
0.082092 -0.066366 0.127612 
0.081706 -0.066024 0.127609 
0.081424 -0.065611 0.127614 
0.081038 -0.065269 0.127610 
0.080756 -0.064856 0.127614 
0.080370 -0.064514 0.127612 
0.079983 -0.064172 0.127610 
0.079597 -0.063831 0.127608 
0.079210 -0.063489 0.127604 
0.078824 -0.063147 0.127602 
0.078437 -0.062805 0.127600 
0.077946 -0.062535 0.127590 
0.077454 -0.062265 0.127581 
0.077068 -0.061923 0.127579 
0.076577 -0.061653 0.127569 
0.076085 -0.061383 0.127560 
0.075699 -0.061041 0.127557 
0.075207 -0.060771 0.127549 
0.074716 -0.060500 0.127539 
0.074224 -0.060230 0.127530 
0.073943 -0.059817 0.127534 
0.073451 -0.059547 0.127525 
0.073065 -0.059205 0.127523 
0.072888 -0.058720 0.127533 
0.072607 -0.058307 0.127537 
0.072325 -0.057894 0.127541 
0.072148 -0.057409 0.127552 
0.071972 -0.056925 0.127563 
0.071690 -0.056512 0.127567 
0.071514 -0.056027 0.127578 
0.071232 -0.055614 0.127582 
0.070950 -0.055201 0.127586 
0.070669 -0.054788 0.127590 
0.070387 -0.054374 0.127594 
0.070106 -0.053961 0.127598 
0.069719 -0.053620 0.127596 
0.069333 -0.053278 0.127593 
0.068946 -0.052936 0.127591 
0.068560 -0.052594 0.127588 
0.068278 -0.052181 0.127592 
0.067892 -0.051839 0.127589 
0.067610 -0.051426 0.127593 
0.067224 -0.051085 0.127591 
0.066942 -0.050671 0.127595 
0.066556 -0.050330 0.127593 
0.066274 -0.049917 0.127597 
0.065887 -0.049575 0.127594 
0.065501 -0.049233 0.127592 
0.065219 -0.048820 0.127596 
0.064833 -0.048478 0.127593 
0.064446 -0.048137 0.127590 
0.064060 -0.047795 0.127588 
0.063673 -0.047453 0.127586 
0.063182 -0.047183 0.127576 
0.062795 -0.046841 0.127574 
0.062304 -0.046571 0.127564 
0.061813 -0.046301 0.127556 
0.061321 -0.046030 0.127546 
0.060830 -0.045760 0.127537 
0.060443 -0.045418 0.127534 
0.059847 -0.045219 0.127518 
0.059251 -0.045021 0.127502 
0.058759 -0.044750 0.127493 
0.058268 -0.044480 0.127484 
0.057671 -0.044281 0.127468 
