ply
format ascii 1.0
comment created by MATLAB ply_write
element vertex 1676
property float x
property float y
property float z
end_header
0.039522 -0.037000 0.047778 
0.039522 -0.036500 0.047778 
0.039395 -0.036000 0.047765 
0.039522 -0.035500 0.047778 
0.040029 -0.035000 0.047827 
0.041043 -0.034500 0.047926 
0.041930 -0.034000 0.048013 
0.042690 -0.033500 0.048088 
0.043324 -0.033000 0.048150 
0.043578 -0.032500 0.048175 
0.043831 -0.032000 0.048199 
0.043831 -0.031500 0.048199 
0.044085 -0.031000 0.048224 
0.044211 -0.030500 0.048237 
0.044718 -0.030000 0.048286 
0.045352 -0.029500 0.048348 
0.046239 -0.029000 0.048435 
0.047126 -0.028500 0.048522 
0.047507 -0.028000 0.048559 
0.048014 -0.027500 0.048609 
0.048380 -0.027000 0.048646 
0.048620 -0.026500 0.048670 
0.048861 -0.026000 0.048694 
0.048981 -0.025500 0.048707 
0.049221 -0.025000 0.048731 
0.049341 -0.024500 0.048743 
0.049341 -0.024000 0.048743 
0.049341 -0.023500 0.048743 
0.049341 -0.023000 0.048743 
0.049221 -0.022500 0.048731 
0.049221 -0.022000 0.048731 
0.049101 -0.021500 0.048719 
0.048981 -0.021000 0.048707 
0.048981 -0.020500 0.048707 
0.048620 -0.020000 0.048670 
0.048501 -0.019500 0.048658 
0.048260 -0.019000 0.048633 
0.048260 -0.018500 0.048633 
0.048260 -0.018000 0.048633 
0.047887 -0.017500 0.048596 
0.047760 -0.017000 0.048584 
0.047633 -0.016500 0.048572 
0.047633 -0.016000 0.048572 
0.047633 -0.015500 0.048572 
0.047760 -0.015000 0.048584 
0.047887 -0.014500 0.048596 
0.048140 -0.014000 0.048621 
0.048140 -0.013500 0.048621 
0.048380 -0.013000 0.048646 
0.048741 -0.012500 0.048682 
0.048981 -0.012000 0.048707 
0.048981 -0.011500 0.048707 
0.049101 -0.011000 0.048719 
0.049341 -0.010500 0.048743 
0.049461 -0.010000 0.048755 
0.049701 -0.009500 0.048780 
0.049941 -0.009000 0.048804 
0.050182 -0.008500 0.048829 
0.050302 -0.008000 0.048841 
0.050302 -0.007500 0.048841 
0.050302 -0.007000 0.048841 
0.050182 -0.006500 0.048829 
0.050182 -0.006000 0.048829 
0.050302 -0.005500 0.048841 
0.050302 -0.005000 0.048841 
0.050422 -0.004500 0.048853 
0.050422 -0.004000 0.048853 
0.050662 -0.003500 0.048877 
0.050542 -0.003000 0.048865 
0.050542 -0.002500 0.048865 
0.050662 -0.002000 0.048877 
0.050782 -0.001500 0.048890 
0.050782 -0.001000 0.048890 
0.050902 -0.000500 0.048902 
0.051142 0.000000 0.048926 
0.051262 0.000500 0.048938 
0.051262 0.001000 0.048938 
0.051382 0.001500 0.048951 
0.051382 0.002000 0.048951 
0.051382 0.002500 0.048951 
0.051502 0.003000 0.048963 
0.051382 0.003500 0.048951 
0.051262 0.004000 0.048938 
0.051262 0.004500 0.048938 
0.051262 0.005000 0.048938 
0.051142 0.005500 0.048926 
0.051022 0.006000 0.048914 
0.050902 0.006500 0.048902 
0.050662 0.007000 0.048877 
0.050542 0.007500 0.048865 
0.050422 0.008000 0.048853 
0.050062 0.008500 0.048816 
0.049821 0.009000 0.048792 
0.049461 0.009500 0.048755 
0.048981 0.010000 0.048707 
0.048620 0.010500 0.048670 
0.048140 0.011000 0.048621 
0.047633 0.011500 0.048572 
0.047253 0.012000 0.048534 
0.047000 0.012500 0.048510 
0.046493 0.013000 0.048460 
0.046112 0.013500 0.048423 
0.045732 0.014000 0.048385 
0.045352 0.014500 0.048348 
0.044972 0.015000 0.048311 
0.044592 0.015500 0.048274 
0.044211 0.016000 0.048237 
0.043704 0.016500 0.048187 
0.043197 0.017000 0.048137 
0.042944 0.017500 0.048113 
0.042437 0.018000 0.048063 
0.042183 0.018500 0.048038 
0.041930 0.019000 0.048013 
0.041677 0.019500 0.047989 
0.041423 0.020000 0.047964 
0.041170 0.020500 0.047939 
0.040916 0.021000 0.047914 
0.040789 0.021500 0.047902 
0.040536 0.022000 0.047877 
0.040156 0.022500 0.047840 
0.039776 0.023000 0.047802 
0.039395 0.023500 0.047765 
0.039269 0.024000 0.047753 
0.039015 0.024500 0.047728 
0.038762 0.025000 0.047703 
0.038508 0.025500 0.047678 
0.038255 0.026000 0.047654 
0.037874 0.026500 0.047616 
0.037621 0.027000 0.047592 
0.037241 0.027500 0.047554 
0.036861 0.028000 0.047517 
0.036480 0.028500 0.047480 
0.036100 0.029000 0.047443 
0.035466 0.029500 0.047381 
0.034579 0.030000 0.047294 
0.033819 0.030500 0.047219 
0.032678 0.031000 0.047108 
0.032045 0.031500 0.047046 
0.031411 0.032000 0.046984 
0.031031 0.032500 0.046947 
0.030777 0.033000 0.046922 
0.030651 0.033500 0.046909 
0.030651 0.034000 0.046909 
0.030651 0.034500 0.046909 
0.030777 0.035000 0.046922 
0.030904 0.035500 0.046934 
0.031031 0.036000 0.046947 
0.031031 0.036500 0.046947 
0.031157 0.037000 0.046959 
0.031284 0.037500 0.046971 
0.031411 0.038000 0.046984 
0.031411 0.038500 0.046984 
0.031538 0.039000 0.046996 
0.031538 0.039500 0.046996 
0.031538 0.040000 0.046996 
0.031538 0.040500 0.046996 
0.031411 0.041000 0.046984 
0.031284 0.041500 0.046971 
0.031157 0.042000 0.046959 
0.030904 0.042500 0.046934 
0.030397 0.043000 0.046885 
0.029890 0.043500 0.046835 
0.029383 0.044000 0.046785 
0.028876 0.044500 0.046736 
0.028369 0.045000 0.046686 
0.027989 0.045500 0.046649 
0.027609 0.046000 0.046612 
0.027102 0.046500 0.046562 
0.026722 0.047000 0.046525 
0.026341 0.047500 0.046488 
0.025708 0.048000 0.046426 
0.025074 0.048500 0.046364 
0.024314 0.049000 0.046289 
0.023680 0.049500 0.046227 
0.023173 0.050000 0.046178 
0.022666 0.050500 0.046128 
0.021272 0.051000 0.045991 
0.020258 0.051500 0.045892 
0.018484 0.052000 0.045719 
0.006444 -0.068250 0.045271 
0.006824 -0.067750 0.045308 
0.007331 -0.067250 0.045357 
0.007585 -0.066750 0.045382 
0.007711 -0.066250 0.045394 
0.008092 -0.065750 0.045431 
0.008472 -0.065250 0.045468 
0.008852 -0.064750 0.045505 
0.009232 -0.064250 0.045542 
0.009359 -0.063750 0.045554 
0.009612 -0.063250 0.045579 
0.010119 -0.062750 0.045628 
0.010246 -0.062250 0.045641 
0.010500 -0.061750 0.045665 
0.010753 -0.061250 0.045690 
0.011006 -0.060750 0.045715 
0.011006 -0.060250 0.045715 
0.011133 -0.059750 0.045727 
0.010880 -0.059250 0.045702 
0.037113 -0.058750 0.048254 
0.037493 -0.058250 0.048291 
0.037873 -0.057750 0.048328 
0.038126 -0.057250 0.048352 
0.038380 -0.056750 0.048377 
0.038380 -0.056250 0.048377 
0.038760 -0.055750 0.048414 
0.038760 -0.055250 0.048414 
0.039140 -0.054750 0.048451 
0.039140 -0.054250 0.048451 
0.039140 -0.053750 0.048451 
0.039140 -0.053250 0.048451 
0.038887 -0.052750 0.048426 
0.038633 -0.052250 0.048402 
0.038380 -0.051750 0.048377 
0.038253 -0.051250 0.048365 
0.038380 -0.050750 0.048377 
0.038380 -0.050250 0.048377 
0.038633 -0.049750 0.048402 
0.038760 -0.049250 0.048414 
0.038760 -0.048750 0.048414 
0.038887 -0.048250 0.048426 
0.039014 -0.047750 0.048439 
0.039014 -0.047250 0.048439 
0.039140 -0.046750 0.048451 
0.039140 -0.046250 0.048451 
0.039140 -0.045750 0.048451 
0.039267 -0.045250 0.048463 
0.039394 -0.044750 0.048476 
0.039647 -0.044250 0.048500 
0.039647 -0.043750 0.048500 
0.039774 -0.043250 0.048513 
0.039774 -0.042750 0.048513 
0.039774 -0.042250 0.048513 
0.039901 -0.041750 0.048525 
0.039774 -0.041250 0.048513 
0.039774 -0.040750 0.048513 
0.039774 -0.040250 0.048513 
0.039647 -0.039750 0.048500 
0.039647 -0.039250 0.048500 
0.039647 -0.038750 0.048500 
0.039647 -0.038250 0.048500 
0.039520 -0.037750 0.048488 
0.039394 -0.037250 0.048476 
0.039267 -0.036750 0.048463 
0.039140 -0.036250 0.048451 
0.039140 -0.035750 0.048451 
0.039140 -0.035250 0.048451 
0.039394 -0.034750 0.048476 
0.040027 -0.034250 0.048537 
0.040788 -0.033750 0.048611 
0.041928 -0.033250 0.048722 
0.042435 -0.032750 0.048771 
0.043069 -0.032250 0.048833 
0.043322 -0.031750 0.048858 
0.043449 -0.031250 0.048870 
0.043702 -0.030750 0.048895 
0.043829 -0.030250 0.048907 
0.044209 -0.029750 0.048944 
0.044716 -0.029250 0.048993 
0.045223 -0.028750 0.049043 
0.045984 -0.028250 0.049117 
0.046744 -0.027750 0.049190 
0.047124 -0.027250 0.049227 
0.047631 -0.026750 0.049277 
0.047758 -0.026250 0.049289 
0.047885 -0.025750 0.049301 
0.048011 -0.025250 0.049314 
0.048138 -0.024750 0.049326 
0.048138 -0.024250 0.049326 
0.048011 -0.023750 0.049314 
0.048138 -0.023250 0.049326 
0.048258 -0.022750 0.049338 
0.048258 -0.022250 0.049338 
0.048011 -0.021750 0.049314 
0.048011 -0.021250 0.049314 
0.047885 -0.020750 0.049301 
0.047631 -0.020250 0.049277 
0.047631 -0.019750 0.049277 
0.047378 -0.019250 0.049252 
0.047251 -0.018750 0.049240 
0.047251 -0.018250 0.049240 
0.047124 -0.017750 0.049227 
0.047251 -0.017250 0.049240 
0.047378 -0.016750 0.049252 
0.047504 -0.016250 0.049264 
0.047631 -0.015750 0.049277 
0.047885 -0.015250 0.049301 
0.048138 -0.014750 0.049326 
0.048498 -0.014250 0.049362 
0.048858 -0.013750 0.049399 
0.049219 -0.013250 0.049435 
0.049699 -0.012750 0.049484 
0.049819 -0.012250 0.049496 
0.049939 -0.011750 0.049508 
0.049939 -0.011250 0.049508 
0.050059 -0.010750 0.049520 
0.050059 -0.010250 0.049520 
0.050299 -0.009750 0.049545 
0.050299 -0.009250 0.049545 
0.050540 -0.008750 0.049569 
0.050660 -0.008250 0.049581 
0.050780 -0.007750 0.049593 
0.050780 -0.007250 0.049593 
0.050900 -0.006750 0.049605 
0.050900 -0.006250 0.049605 
0.050900 -0.005750 0.049605 
0.051020 -0.005250 0.049618 
0.051020 -0.004750 0.049618 
0.051140 -0.004250 0.049630 
0.051260 -0.003750 0.049642 
0.051380 -0.003250 0.049654 
0.051260 -0.002750 0.049642 
0.051380 -0.002250 0.049654 
0.051500 -0.001750 0.049666 
0.051620 -0.001250 0.049678 
0.051860 -0.000750 0.049702 
0.051860 -0.000250 0.049702 
0.051860 0.000250 0.049702 
0.051860 0.000750 0.049702 
0.051860 0.001250 0.049702 
0.051860 0.001750 0.049702 
0.051860 0.002250 0.049702 
0.051981 0.002750 0.049715 
0.051981 0.003250 0.049715 
0.051981 0.003750 0.049715 
0.051860 0.004250 0.049702 
0.051860 0.004750 0.049702 
0.051740 0.005250 0.049690 
0.051620 0.005750 0.049678 
0.051380 0.006250 0.049654 
0.051140 0.006750 0.049630 
0.051020 0.007250 0.049618 
0.050900 0.007750 0.049605 
0.050780 0.008250 0.049593 
0.050420 0.008750 0.049557 
0.050179 0.009250 0.049533 
0.049699 0.009750 0.049484 
0.049339 0.010250 0.049447 
0.048979 0.010750 0.049411 
0.048498 0.011250 0.049362 
0.048138 0.011750 0.049326 
0.047758 0.012250 0.049289 
0.047251 0.012750 0.049240 
0.046871 0.013250 0.049203 
0.046490 0.013750 0.049166 
0.046110 0.014250 0.049129 
0.045730 0.014750 0.049092 
0.045350 0.015250 0.049055 
0.044970 0.015750 0.049018 
0.044590 0.016250 0.048981 
0.044209 0.016750 0.048944 
0.043702 0.017250 0.048895 
0.043322 0.017750 0.048858 
0.042815 0.018250 0.048808 
0.042435 0.018750 0.048771 
0.042055 0.019250 0.048734 
0.041675 0.019750 0.048697 
0.041295 0.020250 0.048660 
0.041041 0.020750 0.048636 
0.040914 0.021250 0.048624 
0.040661 0.021750 0.048599 
0.040407 0.022250 0.048574 
0.040027 0.022750 0.048537 
0.039647 0.023250 0.048500 
0.039394 0.023750 0.048476 
0.039140 0.024250 0.048451 
0.038887 0.024750 0.048426 
0.038760 0.025250 0.048414 
0.038380 0.025750 0.048377 
0.038126 0.026250 0.048352 
0.037873 0.026750 0.048328 
0.037620 0.027250 0.048303 
0.037239 0.027750 0.048266 
0.036859 0.028250 0.048229 
0.036479 0.028750 0.048192 
0.036226 0.029250 0.048167 
0.035719 0.029750 0.048118 
0.034832 0.030250 0.048032 
0.034071 0.030750 0.047958 
0.033184 0.031250 0.047872 
0.032424 0.031750 0.047798 
0.031790 0.032250 0.047736 
0.031410 0.032750 0.047699 
0.031030 0.033250 0.047662 
0.030776 0.033750 0.047637 
0.030903 0.034250 0.047650 
0.030903 0.034750 0.047650 
0.031030 0.035250 0.047662 
0.031156 0.035750 0.047674 
0.031283 0.036250 0.047687 
0.031410 0.036750 0.047699 
0.031410 0.037250 0.047699 
0.031537 0.037750 0.047711 
0.031663 0.038250 0.047724 
0.031790 0.038750 0.047736 
0.031790 0.039250 0.047736 
0.031790 0.039750 0.047736 
0.031917 0.040250 0.047748 
0.031917 0.040750 0.047748 
0.031917 0.041250 0.047748 
0.031790 0.041750 0.047736 
0.031663 0.042250 0.047724 
0.031410 0.042750 0.047699 
0.030903 0.043250 0.047650 
0.030523 0.043750 0.047613 
0.030142 0.044250 0.047576 
0.029636 0.044750 0.047526 
0.029129 0.045250 0.047477 
0.028495 0.045750 0.047416 
0.028115 0.046250 0.047379 
0.027608 0.046750 0.047329 
0.027355 0.047250 0.047305 
0.026974 0.047750 0.047268 
0.026341 0.048250 0.047206 
0.025961 0.048750 0.047169 
0.024947 0.049250 0.047071 
0.024440 0.049750 0.047021 
0.023806 0.050250 0.046960 
0.023299 0.050750 0.046910 
0.022666 0.051250 0.046849 
0.021525 0.051750 0.046738 
0.020131 0.052250 0.046602 
0.019497 0.052750 0.046540 
0.006191 -0.067000 0.045977 
0.006571 -0.066500 0.046014 
0.007078 -0.066000 0.046063 
0.007078 -0.065500 0.046063 
0.007459 -0.065000 0.046100 
0.007839 -0.064500 0.046137 
0.008219 -0.064000 0.046173 
0.008472 -0.063500 0.046198 
0.008852 -0.063000 0.046235 
0.008979 -0.062500 0.046247 
0.009359 -0.062000 0.046284 
0.009613 -0.061500 0.046308 
0.009866 -0.061000 0.046333 
0.010373 -0.060500 0.046382 
0.010500 -0.060000 0.046394 
0.010627 -0.059500 0.046406 
0.010753 -0.059000 0.046418 
0.011133 -0.058500 0.046455 
0.011133 -0.058000 0.046455 
0.011260 -0.057500 0.046467 
0.011514 -0.057000 0.046492 
0.011640 -0.056500 0.046504 
0.036478 -0.056000 0.048904 
0.036224 -0.055500 0.048880 
0.036224 -0.055000 0.048880 
0.035844 -0.054500 0.048843 
0.037111 -0.054000 0.048965 
0.037365 -0.053500 0.048990 
0.037365 -0.053000 0.048990 
0.037998 -0.052500 0.049051 
0.037872 -0.052000 0.049039 
0.037618 -0.051500 0.049014 
0.037491 -0.051000 0.049002 
0.037365 -0.050500 0.048990 
0.037491 -0.050000 0.049002 
0.037745 -0.049500 0.049027 
0.037872 -0.049000 0.049039 
0.038125 -0.048500 0.049063 
0.038378 -0.048000 0.049088 
0.038505 -0.047500 0.049100 
0.038632 -0.047000 0.049112 
0.038759 -0.046500 0.049125 
0.038885 -0.046000 0.049137 
0.039012 -0.045500 0.049149 
0.039139 -0.045000 0.049161 
0.039265 -0.044500 0.049174 
0.039392 -0.044000 0.049186 
0.039519 -0.043500 0.049198 
0.039646 -0.043000 0.049210 
0.039646 -0.042500 0.049210 
0.039646 -0.042000 0.049210 
0.039646 -0.041500 0.049210 
0.039519 -0.041000 0.049198 
0.039519 -0.040500 0.049198 
0.039519 -0.040000 0.049198 
0.039519 -0.039500 0.049198 
0.039519 -0.039000 0.049198 
0.039392 -0.038500 0.049186 
0.039392 -0.038000 0.049186 
0.039265 -0.037500 0.049174 
0.039265 -0.037000 0.049174 
0.039012 -0.036500 0.049149 
0.038885 -0.036000 0.049137 
0.038885 -0.035500 0.049137 
0.038759 -0.035000 0.049125 
0.038885 -0.034500 0.049137 
0.039265 -0.034000 0.049174 
0.039772 -0.033500 0.049223 
0.041166 -0.033000 0.049357 
0.041546 -0.032500 0.049394 
0.042180 -0.032000 0.049455 
0.042687 -0.031500 0.049504 
0.042940 -0.031000 0.049529 
0.043320 -0.030500 0.049565 
0.043447 -0.030000 0.049578 
0.043701 -0.029500 0.049602 
0.044081 -0.029000 0.049639 
0.044588 -0.028500 0.049688 
0.045095 -0.028000 0.049737 
0.045475 -0.027500 0.049774 
0.045728 -0.027000 0.049798 
0.046108 -0.026500 0.049835 
0.046488 -0.026000 0.049872 
0.046615 -0.025500 0.049884 
0.046615 -0.025000 0.049884 
0.046615 -0.024500 0.049884 
0.046869 -0.024000 0.049908 
0.046869 -0.023500 0.049908 
0.046995 -0.023000 0.049921 
0.046488 -0.022500 0.049872 
0.046615 -0.022000 0.049884 
0.046615 -0.021500 0.049884 
0.046362 -0.021000 0.049859 
0.046362 -0.020500 0.049859 
0.046362 -0.020000 0.049859 
0.046615 -0.019500 0.049884 
0.046615 -0.019000 0.049884 
0.046742 -0.018500 0.049896 
0.046869 -0.018000 0.049908 
0.046995 -0.017500 0.049921 
0.047249 -0.017000 0.049945 
0.047376 -0.016500 0.049957 
0.047756 -0.016000 0.049994 
0.048009 -0.015500 0.050019 
0.048496 -0.015000 0.050067 
0.048736 -0.014500 0.050091 
0.049217 -0.014000 0.050140 
0.049577 -0.013500 0.050176 
0.050057 -0.013000 0.050224 
0.050177 -0.012500 0.050236 
0.050297 -0.012000 0.050248 
0.050417 -0.011500 0.050261 
0.050537 -0.011000 0.050273 
0.050537 -0.010500 0.050273 
0.050658 -0.010000 0.050285 
0.050778 -0.009500 0.050297 
0.050898 -0.009000 0.050309 
0.051018 -0.008500 0.050321 
0.051138 -0.008000 0.050333 
0.051258 -0.007500 0.050345 
0.051378 -0.007000 0.050357 
0.051378 -0.006500 0.050357 
0.051498 -0.006000 0.050369 
0.051618 -0.005500 0.050381 
0.051858 -0.005000 0.050406 
0.051978 -0.004500 0.050418 
0.052219 -0.004000 0.050442 
0.052339 -0.003500 0.050454 
0.052579 -0.003000 0.050478 
0.052699 -0.002500 0.050490 
0.052819 -0.002000 0.050502 
0.052939 -0.001500 0.050514 
0.053059 -0.001000 0.050527 
0.052939 -0.000500 0.050514 
0.052699 0.000000 0.050490 
0.052339 0.000500 0.050454 
0.052339 0.001000 0.050454 
0.052219 0.001500 0.050442 
0.052219 0.002000 0.050442 
0.052339 0.002500 0.050454 
0.052459 0.003000 0.050466 
0.052579 0.003500 0.050478 
0.052579 0.004000 0.050478 
0.052459 0.004500 0.050466 
0.052339 0.005000 0.050454 
0.052098 0.005500 0.050430 
0.051978 0.006000 0.050418 
0.051738 0.006500 0.050394 
0.051498 0.007000 0.050369 
0.051378 0.007500 0.050357 
0.051138 0.008000 0.050333 
0.051018 0.008500 0.050321 
0.050658 0.009000 0.050285 
0.050417 0.009500 0.050261 
0.050057 0.010000 0.050224 
0.049697 0.010500 0.050188 
0.049457 0.011000 0.050164 
0.048976 0.011500 0.050115 
0.048616 0.012000 0.050079 
0.048136 0.012500 0.050031 
0.047629 0.013000 0.049982 
0.047249 0.013500 0.049945 
0.046869 0.014000 0.049908 
0.046488 0.014500 0.049872 
0.045982 0.015000 0.049823 
0.045728 0.015500 0.049798 
0.045348 0.016000 0.049761 
0.045095 0.016500 0.049737 
0.044714 0.017000 0.049700 
0.044334 0.017500 0.049663 
0.044081 0.018000 0.049639 
0.043701 0.018500 0.049602 
0.043067 0.019000 0.049541 
0.042433 0.019500 0.049480 
0.041926 0.020000 0.049431 
0.041546 0.020500 0.049394 
0.041293 0.021000 0.049369 
0.041040 0.021500 0.049345 
0.040786 0.022000 0.049321 
0.040533 0.022500 0.049296 
0.040152 0.023000 0.049259 
0.039772 0.023500 0.049223 
0.039392 0.024000 0.049186 
0.039139 0.024500 0.049161 
0.038885 0.025000 0.049137 
0.038759 0.025500 0.049125 
0.038378 0.026000 0.049088 
0.038125 0.026500 0.049063 
0.037872 0.027000 0.049039 
0.037491 0.027500 0.049002 
0.037238 0.028000 0.048978 
0.036984 0.028500 0.048953 
0.036604 0.029000 0.048916 
0.036351 0.029500 0.048892 
0.035844 0.030000 0.048843 
0.034957 0.030500 0.048757 
0.034323 0.031000 0.048696 
0.033436 0.031500 0.048610 
0.032676 0.032000 0.048537 
0.032169 0.032500 0.048488 
0.031535 0.033000 0.048427 
0.031155 0.033500 0.048390 
0.031029 0.034000 0.048378 
0.031029 0.034500 0.048378 
0.031029 0.035000 0.048378 
0.031155 0.035500 0.048390 
0.031282 0.036000 0.048402 
0.031409 0.036500 0.048414 
0.031535 0.037000 0.048427 
0.031662 0.037500 0.048439 
0.031789 0.038000 0.048451 
0.031916 0.038500 0.048463 
0.031916 0.039000 0.048463 
0.032042 0.039500 0.048476 
0.032169 0.040000 0.048488 
0.032169 0.040500 0.048488 
0.032169 0.041000 0.048488 
0.032042 0.041500 0.048476 
0.032042 0.042000 0.048476 
0.031789 0.042500 0.048451 
0.031662 0.043000 0.048439 
0.031282 0.043500 0.048402 
0.030902 0.044000 0.048365 
0.030648 0.044500 0.048341 
0.030268 0.045000 0.048304 
0.029888 0.045500 0.048267 
0.029254 0.046000 0.048206 
0.028748 0.046500 0.048157 
0.028241 0.047000 0.048108 
0.027861 0.047500 0.048072 
0.027354 0.048000 0.048023 
0.026974 0.048500 0.047986 
0.026467 0.049000 0.047937 
0.025833 0.049500 0.047876 
0.025199 0.050000 0.047814 
0.024439 0.050500 0.047741 
0.023806 0.051000 0.047680 
0.023299 0.051500 0.047631 
0.022665 0.052000 0.047569 
0.021524 0.052500 0.047459 
0.020511 0.053000 0.047361 
0.019624 0.053500 0.047275 
0.018990 0.054000 0.047214 
0.005930 -0.065750 0.046681 
0.006065 -0.065250 0.046696 
0.006065 -0.064750 0.046696 
0.006319 -0.064250 0.046721 
0.006825 -0.063750 0.046769 
0.007459 -0.063250 0.046830 
0.007459 -0.062750 0.046830 
0.007712 -0.062250 0.046855 
0.007966 -0.061750 0.046879 
0.008726 -0.061250 0.046952 
0.008853 -0.060750 0.046964 
0.009233 -0.060250 0.047001 
0.009486 -0.059750 0.047025 
0.009613 -0.059250 0.047037 
0.009867 -0.058750 0.047061 
0.010120 -0.058250 0.047086 
0.010753 -0.057750 0.047147 
0.011007 -0.057250 0.047171 
0.011514 -0.056750 0.047219 
0.011641 -0.056250 0.047232 
0.011767 -0.055750 0.047244 
0.011894 -0.055250 0.047256 
0.011894 -0.054750 0.047256 
0.031408 -0.054250 0.049130 
0.030774 -0.053750 0.049069 
0.034702 -0.053250 0.049446 
0.035336 -0.052750 0.049507 
0.035462 -0.052250 0.049519 
0.036856 -0.051750 0.049653 
0.036856 -0.051250 0.049653 
0.036729 -0.050750 0.049641 
0.036856 -0.050250 0.049653 
0.036983 -0.049750 0.049665 
0.037363 -0.049250 0.049702 
0.037490 -0.048750 0.049714 
0.037743 -0.048250 0.049738 
0.037997 -0.047750 0.049762 
0.038123 -0.047250 0.049774 
0.038377 -0.046750 0.049799 
0.038504 -0.046250 0.049811 
0.038630 -0.045750 0.049823 
0.038757 -0.045250 0.049835 
0.038884 -0.044750 0.049848 
0.039137 -0.044250 0.049872 
0.039264 -0.043750 0.049884 
0.039391 -0.043250 0.049896 
0.039391 -0.042750 0.049896 
0.039517 -0.042250 0.049908 
0.039517 -0.041750 0.049908 
0.039391 -0.041250 0.049896 
0.039391 -0.040750 0.049896 
0.039391 -0.040250 0.049896 
0.039391 -0.039750 0.049896 
0.039391 -0.039250 0.049896 
0.039391 -0.038750 0.049896 
0.039264 -0.038250 0.049884 
0.039264 -0.037750 0.049884 
0.039137 -0.037250 0.049872 
0.039010 -0.036750 0.049860 
0.038757 -0.036250 0.049835 
0.038630 -0.035750 0.049823 
0.038504 -0.035250 0.049811 
0.038504 -0.034750 0.049811 
0.038377 -0.034250 0.049799 
0.038504 -0.033750 0.049811 
0.038884 -0.033250 0.049848 
0.039644 -0.032750 0.049921 
0.040784 -0.032250 0.050030 
0.041165 -0.031750 0.050067 
0.041671 -0.031250 0.050115 
0.042051 -0.030750 0.050152 
0.042558 -0.030250 0.050200 
0.042812 -0.029750 0.050225 
0.043319 -0.029250 0.050273 
0.043319 -0.028750 0.050273 
0.043825 -0.028250 0.050322 
0.044206 -0.027750 0.050358 
0.044586 -0.027250 0.050395 
0.044966 -0.026750 0.050431 
0.045093 -0.026250 0.050444 
0.045219 -0.025750 0.050456 
0.045093 -0.025250 0.050444 
0.045219 -0.024750 0.050456 
0.045599 -0.024250 0.050492 
0.045346 -0.023750 0.050468 
0.045219 -0.023250 0.050456 
0.045093 -0.022750 0.050444 
0.045346 -0.022250 0.050468 
0.045346 -0.021750 0.050468 
0.045473 -0.021250 0.050480 
0.045599 -0.020750 0.050492 
0.045980 -0.020250 0.050529 
0.046233 -0.019750 0.050553 
0.046486 -0.019250 0.050577 
0.046740 -0.018750 0.050602 
0.046993 -0.018250 0.050626 
0.047120 -0.017750 0.050638 
0.047500 -0.017250 0.050675 
0.047753 -0.016750 0.050699 
0.048134 -0.016250 0.050736 
0.048374 -0.015750 0.050760 
0.048734 -0.015250 0.050796 
0.048974 -0.014750 0.050820 
0.049454 -0.014250 0.050868 
0.049695 -0.013750 0.050892 
0.050175 -0.013250 0.050940 
0.050415 -0.012750 0.050964 
0.050655 -0.012250 0.050988 
0.050776 -0.011750 0.051000 
0.050896 -0.011250 0.051012 
0.050896 -0.010750 0.051012 
0.051016 -0.010250 0.051024 
0.051136 -0.009750 0.051036 
0.051256 -0.009250 0.051048 
0.051376 -0.008750 0.051061 
0.051496 -0.008250 0.051073 
0.051736 -0.007750 0.051097 
0.051856 -0.007250 0.051109 
0.051856 -0.006750 0.051109 
0.051976 -0.006250 0.051121 
0.052216 -0.005750 0.051145 
0.052457 -0.005250 0.051169 
0.052697 -0.004750 0.051193 
0.052937 -0.004250 0.051217 
0.053057 -0.003750 0.051229 
0.053177 -0.003250 0.051241 
0.053297 -0.002750 0.051253 
0.053537 -0.002250 0.051277 
0.053537 -0.001750 0.051277 
0.053657 -0.001250 0.051289 
0.053657 -0.000750 0.051289 
0.053657 -0.000250 0.051289 
0.053177 0.000250 0.051241 
0.052697 0.000750 0.051193 
0.052577 0.001250 0.051181 
0.052577 0.001750 0.051181 
0.052697 0.002250 0.051193 
0.052817 0.002750 0.051205 
0.052937 0.003250 0.051217 
0.053057 0.003750 0.051229 
0.052937 0.004250 0.051217 
0.052937 0.004750 0.051217 
0.052817 0.005250 0.051205 
0.052577 0.005750 0.051181 
0.052337 0.006250 0.051157 
0.051976 0.006750 0.051121 
0.051736 0.007250 0.051097 
0.051616 0.007750 0.051085 
0.051496 0.008250 0.051073 
0.051256 0.008750 0.051048 
0.051016 0.009250 0.051024 
0.050896 0.009750 0.051012 
0.050415 0.010250 0.050964 
0.050055 0.010750 0.050928 
0.049935 0.011250 0.050916 
0.049454 0.011750 0.050868 
0.048974 0.012250 0.050820 
0.048614 0.012750 0.050784 
0.048007 0.013250 0.050723 
0.047500 0.013750 0.050675 
0.047120 0.014250 0.050638 
0.046740 0.014750 0.050602 
0.046360 0.015250 0.050565 
0.046106 0.015750 0.050541 
0.045726 0.016250 0.050504 
0.045599 0.016750 0.050492 
0.045219 0.017250 0.050456 
0.044966 0.017750 0.050431 
0.044839 0.018250 0.050419 
0.044459 0.018750 0.050383 
0.044206 0.019250 0.050358 
0.043825 0.019750 0.050322 
0.042812 0.020250 0.050225 
0.042051 0.020750 0.050152 
0.041798 0.021250 0.050127 
0.041291 0.021750 0.050079 
0.041165 0.022250 0.050067 
0.040911 0.022750 0.050042 
0.040404 0.023250 0.049994 
0.040151 0.023750 0.049969 
0.039517 0.024250 0.049908 
0.039137 0.024750 0.049872 
0.038884 0.025250 0.049848 
0.038757 0.025750 0.049835 
0.038504 0.026250 0.049811 
0.038250 0.026750 0.049787 
0.037870 0.027250 0.049750 
0.037616 0.027750 0.049726 
0.037236 0.028250 0.049689 
0.036983 0.028750 0.049665 
0.036729 0.029250 0.049641 
0.036476 0.029750 0.049616 
0.035969 0.030250 0.049568 
0.035209 0.030750 0.049495 
0.034575 0.031250 0.049434 
0.033562 0.031750 0.049336 
0.033055 0.032250 0.049288 
0.032421 0.032750 0.049227 
0.031914 0.033250 0.049178 
0.031408 0.033750 0.049130 
0.031154 0.034250 0.049105 
0.031154 0.034750 0.049105 
0.031154 0.035250 0.049105 
0.031408 0.035750 0.049130 
0.031534 0.036250 0.049142 
0.031534 0.036750 0.049142 
0.031661 0.037250 0.049154 
0.031788 0.037750 0.049166 
0.031914 0.038250 0.049178 
0.032041 0.038750 0.049190 
0.032168 0.039250 0.049203 
0.032295 0.039750 0.049215 
0.032295 0.040250 0.049215 
0.032295 0.040750 0.049215 
0.032295 0.041250 0.049215 
0.032295 0.041750 0.049215 
0.032168 0.042250 0.049203 
0.032041 0.042750 0.049190 
0.031914 0.043250 0.049178 
0.031661 0.043750 0.049154 
0.031281 0.044250 0.049118 
0.031028 0.044750 0.049093 
0.030647 0.045250 0.049057 
0.030267 0.045750 0.049020 
0.029760 0.046250 0.048972 
0.029380 0.046750 0.048935 
0.028747 0.047250 0.048874 
0.028366 0.047750 0.048838 
0.027860 0.048250 0.048789 
0.027353 0.048750 0.048740 
0.026846 0.049250 0.048692 
0.026466 0.049750 0.048655 
0.025832 0.050250 0.048594 
0.025199 0.050750 0.048534 
0.024312 0.051250 0.048448 
0.023932 0.051750 0.048412 
0.023171 0.052250 0.048339 
0.022538 0.052750 0.048278 
0.021397 0.053250 0.048169 
0.020510 0.053750 0.048083 
0.019877 0.054250 0.048023 
0.018610 0.054750 0.047901 
0.005525 -0.063500 0.047368 
0.005796 -0.063000 0.047398 
0.006319 -0.062500 0.047452 
0.006573 -0.062000 0.047476 
0.006446 -0.061500 0.047464 
0.007079 -0.061000 0.047524 
0.007333 -0.060500 0.047549 
0.008093 -0.060000 0.047621 
0.008346 -0.059500 0.047645 
0.008853 -0.059000 0.047694 
0.008980 -0.058500 0.047706 
0.009107 -0.058000 0.047718 
0.009740 -0.057500 0.047778 
0.010500 -0.057000 0.047851 
0.011007 -0.056500 0.047899 
0.011387 -0.056000 0.047935 
0.011768 -0.055500 0.047972 
0.012021 -0.055000 0.047996 
0.012274 -0.054500 0.048020 
0.031153 -0.054000 0.049821 
0.031280 -0.053500 0.049833 
0.032040 -0.053000 0.049905 
0.032547 -0.052500 0.049954 
0.034447 -0.052000 0.050135 
0.034827 -0.051500 0.050171 
0.035208 -0.051000 0.050208 
0.036348 -0.050500 0.050316 
0.036348 -0.050000 0.050316 
0.036601 -0.049500 0.050341 
0.036982 -0.049000 0.050377 
0.037235 -0.048500 0.050401 
0.037615 -0.048000 0.050437 
0.037742 -0.047500 0.050449 
0.037995 -0.047000 0.050473 
0.038122 -0.046500 0.050486 
0.038375 -0.046000 0.050510 
0.038502 -0.045500 0.050522 
0.038629 -0.045000 0.050534 
0.038882 -0.044500 0.050558 
0.039009 -0.044000 0.050570 
0.039135 -0.043500 0.050582 
0.039389 -0.043000 0.050606 
0.039389 -0.042500 0.050606 
0.039389 -0.042000 0.050606 
0.039389 -0.041500 0.050606 
0.039389 -0.041000 0.050606 
0.039262 -0.040500 0.050594 
0.039262 -0.040000 0.050594 
0.039262 -0.039500 0.050594 
0.039262 -0.039000 0.050594 
0.039262 -0.038500 0.050594 
0.039135 -0.038000 0.050582 
0.039135 -0.037500 0.050582 
0.038882 -0.037000 0.050558 
0.038755 -0.036500 0.050546 
0.038629 -0.036000 0.050534 
0.038502 -0.035500 0.050522 
0.038375 -0.035000 0.050510 
0.038248 -0.034500 0.050498 
0.038122 -0.034000 0.050486 
0.038122 -0.033500 0.050486 
0.037995 -0.033000 0.050473 
0.038122 -0.032500 0.050486 
0.038629 -0.032000 0.050534 
0.040022 -0.031500 0.050667 
0.040656 -0.031000 0.050727 
0.041163 -0.030500 0.050776 
0.041289 -0.030000 0.050788 
0.041669 -0.029500 0.050824 
0.042303 -0.029000 0.050884 
0.042430 -0.028500 0.050896 
0.042683 -0.028000 0.050921 
0.042937 -0.027500 0.050945 
0.042683 -0.027000 0.050921 
0.042937 -0.026500 0.050945 
0.042937 -0.026000 0.050945 
0.043443 -0.025500 0.050993 
0.043190 -0.025000 0.050969 
0.043190 -0.024500 0.050969 
0.043570 -0.024000 0.051005 
0.043570 -0.023500 0.051005 
0.043824 -0.023000 0.051029 
0.044204 -0.022500 0.051066 
0.044584 -0.022000 0.051102 
0.044964 -0.021500 0.051138 
0.045217 -0.021000 0.051162 
0.045597 -0.020500 0.051199 
0.046104 -0.020000 0.051247 
0.046358 -0.019500 0.051271 
0.046864 -0.019000 0.051319 
0.047245 -0.018500 0.051356 
0.047625 -0.018000 0.051392 
0.048005 -0.017500 0.051428 
0.048252 -0.017000 0.051452 
0.048612 -0.016500 0.051488 
0.048852 -0.016000 0.051512 
0.048972 -0.015500 0.051524 
0.049212 -0.015000 0.051548 
0.049572 -0.014500 0.051584 
0.049813 -0.014000 0.051608 
0.050293 -0.013500 0.051656 
0.050533 -0.013000 0.051680 
0.050893 -0.012500 0.051716 
0.051014 -0.012000 0.051728 
0.051134 -0.011500 0.051740 
0.051254 -0.011000 0.051752 
0.051254 -0.010500 0.051752 
0.051374 -0.010000 0.051764 
0.051494 -0.009500 0.051776 
0.051734 -0.009000 0.051800 
0.051854 -0.008500 0.051812 
0.051974 -0.008000 0.051824 
0.052094 -0.007500 0.051836 
0.052214 -0.007000 0.051848 
0.052334 -0.006500 0.051860 
0.052575 -0.006000 0.051884 
0.052935 -0.005500 0.051920 
0.053055 -0.005000 0.051931 
0.053175 -0.004500 0.051943 
0.053415 -0.004000 0.051967 
0.053535 -0.003500 0.051979 
0.053775 -0.003000 0.052003 
0.053896 -0.002500 0.052015 
0.054016 -0.002000 0.052027 
0.054136 -0.001500 0.052039 
0.054136 -0.001000 0.052039 
0.054136 -0.000500 0.052039 
0.053896 0.000000 0.052015 
0.053415 0.000500 0.051967 
0.053055 0.001000 0.051931 
0.052935 0.001500 0.051920 
0.052935 0.002000 0.051920 
0.053055 0.002500 0.051931 
0.053175 0.003000 0.051943 
0.053295 0.003500 0.051956 
0.053295 0.004000 0.051956 
0.053295 0.004500 0.051956 
0.053175 0.005000 0.051943 
0.053055 0.005500 0.051931 
0.052815 0.006000 0.051908 
0.052455 0.006500 0.051872 
0.052094 0.007000 0.051836 
0.051974 0.007500 0.051824 
0.051734 0.008000 0.051800 
0.051734 0.008500 0.051800 
0.051614 0.009000 0.051788 
0.051374 0.009500 0.051764 
0.051254 0.010000 0.051752 
0.050893 0.010500 0.051716 
0.050533 0.011000 0.051680 
0.050293 0.011500 0.051656 
0.049813 0.012000 0.051608 
0.049332 0.012500 0.051560 
0.048852 0.013000 0.051512 
0.048372 0.013500 0.051464 
0.047878 0.014000 0.051416 
0.047371 0.014500 0.051368 
0.047118 0.015000 0.051344 
0.046738 0.015500 0.051307 
0.046484 0.016000 0.051283 
0.046231 0.016500 0.051259 
0.046104 0.017000 0.051247 
0.045851 0.017500 0.051223 
0.045724 0.018000 0.051211 
0.045597 0.018500 0.051199 
0.045217 0.019000 0.051162 
0.045090 0.019500 0.051150 
0.044584 0.020000 0.051102 
0.043950 0.020500 0.051041 
0.042683 0.021000 0.050921 
0.042430 0.021500 0.050896 
0.041923 0.022000 0.050848 
0.041543 0.022500 0.050812 
0.041289 0.023000 0.050788 
0.040783 0.023500 0.050739 
0.040276 0.024000 0.050691 
0.039642 0.024500 0.050631 
0.039389 0.025000 0.050606 
0.039009 0.025500 0.050570 
0.038882 0.026000 0.050558 
0.038629 0.026500 0.050534 
0.038375 0.027000 0.050510 
0.037995 0.027500 0.050473 
0.037615 0.028000 0.050437 
0.037362 0.028500 0.050413 
0.037108 0.029000 0.050389 
0.036855 0.029500 0.050365 
0.036601 0.030000 0.050341 
0.036221 0.030500 0.050304 
0.035461 0.031000 0.050232 
0.034827 0.031500 0.050171 
0.033941 0.032000 0.050087 
0.033307 0.032500 0.050026 
0.032800 0.033000 0.049978 
0.032167 0.033500 0.049917 
0.031660 0.034000 0.049869 
0.031406 0.034500 0.049845 
0.031280 0.035000 0.049833 
0.031406 0.035500 0.049845 
0.031406 0.036000 0.049845 
0.031533 0.036500 0.049857 
0.031660 0.037000 0.049869 
0.031787 0.037500 0.049881 
0.031913 0.038000 0.049893 
0.032040 0.038500 0.049905 
0.032040 0.039000 0.049905 
0.032167 0.039500 0.049917 
0.032294 0.040000 0.049930 
0.032420 0.040500 0.049942 
0.032420 0.041000 0.049942 
0.032420 0.041500 0.049942 
0.032420 0.042000 0.049942 
0.032420 0.042500 0.049942 
0.032294 0.043000 0.049930 
0.032167 0.043500 0.049917 
0.031913 0.044000 0.049893 
0.031660 0.044500 0.049869 
0.031280 0.045000 0.049833 
0.031026 0.045500 0.049809 
0.030646 0.046000 0.049772 
0.030140 0.046500 0.049724 
0.029759 0.047000 0.049688 
0.029253 0.047500 0.049640 
0.028872 0.048000 0.049603 
0.028239 0.048500 0.049543 
0.027732 0.049000 0.049494 
0.027099 0.049500 0.049434 
0.026845 0.050000 0.049410 
0.026212 0.050500 0.049349 
0.025578 0.051000 0.049289 
0.024945 0.051500 0.049229 
0.024438 0.052000 0.049180 
0.023804 0.052500 0.049120 
0.023044 0.053000 0.049047 
0.022284 0.053500 0.048975 
0.021524 0.054000 0.048902 
0.020763 0.054500 0.048830 
0.020257 0.055000 0.048781 
0.018610 0.055500 0.048624 
0.004850 -0.060750 0.048025 
0.005796 -0.060250 0.048129 
0.006193 -0.059750 0.048171 
0.006953 -0.059250 0.048243 
0.007333 -0.058750 0.048279 
0.008220 -0.058250 0.048363 
0.008600 -0.057750 0.048399 
0.009107 -0.057250 0.048447 
0.010121 -0.056750 0.048543 
0.010501 -0.056250 0.048579 
0.011008 -0.055750 0.048627 
0.011514 -0.055250 0.048675 
0.011894 -0.054750 0.048711 
0.012401 -0.054250 0.048759 
0.012528 -0.053750 0.048771 
0.029632 -0.053250 0.050392 
0.031912 -0.052750 0.050608 
0.032166 -0.052250 0.050632 
0.032926 -0.051750 0.050704 
0.033813 -0.051250 0.050788 
0.034319 -0.050750 0.050836 
0.035460 -0.050250 0.050944 
0.035966 -0.049750 0.050993 
0.036220 -0.049250 0.051016 
0.036600 -0.048750 0.051053 
0.037107 -0.048250 0.051101 
0.037360 -0.047750 0.051125 
0.037614 -0.047250 0.051149 
0.037867 -0.046750 0.051173 
0.037994 -0.046250 0.051185 
0.038247 -0.045750 0.051209 
0.038374 -0.045250 0.051221 
0.038627 -0.044750 0.051245 
0.038880 -0.044250 0.051269 
0.039007 -0.043750 0.051281 
0.039261 -0.043250 0.051305 
0.039261 -0.042750 0.051305 
0.039387 -0.042250 0.051317 
0.039261 -0.041750 0.051305 
0.039261 -0.041250 0.051305 
0.039261 -0.040750 0.051305 
0.039261 -0.040250 0.051305 
0.039261 -0.039750 0.051305 
0.039261 -0.039250 0.051305 
0.039134 -0.038750 0.051293 
0.039134 -0.038250 0.051293 
0.039007 -0.037750 0.051281 
0.038880 -0.037250 0.051269 
0.038754 -0.036750 0.051257 
0.038627 -0.036250 0.051245 
0.038500 -0.035750 0.051233 
0.038247 -0.035250 0.051209 
0.038120 -0.034750 0.051197 
0.037994 -0.034250 0.051185 
0.037867 -0.033750 0.051173 
0.037614 -0.033250 0.051149 
0.037614 -0.032750 0.051149 
0.037614 -0.032250 0.051149 
0.037740 -0.031750 0.051161 
0.037867 -0.031250 0.051173 
0.038880 -0.030750 0.051269 
0.039387 -0.030250 0.051317 
0.039894 -0.029750 0.051365 
0.039767 -0.029250 0.051353 
0.040021 -0.028750 0.051377 
0.040021 -0.028250 0.051377 
0.040274 -0.027750 0.051401 
0.040528 -0.027250 0.051425 
0.040781 -0.026750 0.051449 
0.041161 -0.026250 0.051485 
0.041541 -0.025750 0.051521 
0.041794 -0.025250 0.051545 
0.041921 -0.024750 0.051557 
0.042174 -0.024250 0.051581 
0.042681 -0.023750 0.051629 
0.043061 -0.023250 0.051665 
0.043442 -0.022750 0.051701 
0.043948 -0.022250 0.051749 
0.044455 -0.021750 0.051797 
0.044962 -0.021250 0.051845 
0.045469 -0.020750 0.051893 
0.046102 -0.020250 0.051953 
0.046609 -0.019750 0.052001 
0.047116 -0.019250 0.052049 
0.047496 -0.018750 0.052085 
0.048002 -0.018250 0.052133 
0.048489 -0.017750 0.052181 
0.048850 -0.017250 0.052217 
0.049090 -0.016750 0.052241 
0.049330 -0.016250 0.052264 
0.049450 -0.015750 0.052276 
0.049570 -0.015250 0.052288 
0.049811 -0.014750 0.052312 
0.049931 -0.014250 0.052324 
0.050291 -0.013750 0.052360 
0.050531 -0.013250 0.052384 
0.050891 -0.012750 0.052419 
0.051251 -0.012250 0.052455 
0.051372 -0.011750 0.052467 
0.051372 -0.011250 0.052467 
0.051492 -0.010750 0.052479 
0.051612 -0.010250 0.052491 
0.051852 -0.009750 0.052515 
0.051852 -0.009250 0.052515 
0.052092 -0.008750 0.052539 
0.052212 -0.008250 0.052551 
0.052332 -0.007750 0.052562 
0.052452 -0.007250 0.052574 
0.052693 -0.006750 0.052598 
0.052933 -0.006250 0.052622 
0.053173 -0.005750 0.052646 
0.053413 -0.005250 0.052670 
0.053533 -0.004750 0.052682 
0.053653 -0.004250 0.052694 
0.053773 -0.003750 0.052706 
0.054014 -0.003250 0.052729 
0.054134 -0.002750 0.052741 
0.054374 -0.002250 0.052765 
0.054494 -0.001750 0.052777 
0.054494 -0.001250 0.052777 
0.054494 -0.000750 0.052777 
0.054374 -0.000250 0.052765 
0.054134 0.000250 0.052741 
0.053533 0.000750 0.052682 
0.053293 0.001250 0.052658 
0.053173 0.001750 0.052646 
0.053173 0.002250 0.052646 
0.053293 0.002750 0.052658 
0.053413 0.003250 0.052670 
0.053413 0.003750 0.052670 
0.053413 0.004250 0.052670 
0.053413 0.004750 0.052670 
0.053293 0.005250 0.052658 
0.053173 0.005750 0.052646 
0.052933 0.006250 0.052622 
0.052573 0.006750 0.052586 
0.052212 0.007250 0.052551 
0.051972 0.007750 0.052527 
0.051972 0.008250 0.052527 
0.051972 0.008750 0.052527 
0.051852 0.009250 0.052515 
0.051852 0.009750 0.052515 
0.051612 0.010250 0.052491 
0.051251 0.010750 0.052455 
0.050771 0.011250 0.052408 
0.050531 0.011750 0.052384 
0.050051 0.012250 0.052336 
0.049570 0.012750 0.052288 
0.049090 0.013250 0.052241 
0.048610 0.013750 0.052193 
0.048129 0.014250 0.052145 
0.047622 0.014750 0.052097 
0.047369 0.015250 0.052073 
0.047116 0.015750 0.052049 
0.046862 0.016250 0.052025 
0.046735 0.016750 0.052013 
0.046482 0.017250 0.051989 
0.046356 0.017750 0.051977 
0.046229 0.018250 0.051965 
0.046102 0.018750 0.051953 
0.045849 0.019250 0.051929 
0.045595 0.019750 0.051905 
0.045215 0.020250 0.051869 
0.044582 0.020750 0.051809 
0.043568 0.021250 0.051713 
0.043061 0.021750 0.051665 
0.042555 0.022250 0.051617 
0.042048 0.022750 0.051569 
0.041668 0.023250 0.051533 
0.041161 0.023750 0.051485 
0.040401 0.024250 0.051413 
0.039894 0.024750 0.051365 
0.039641 0.025250 0.051341 
0.039387 0.025750 0.051317 
0.039134 0.026250 0.051293 
0.038880 0.026750 0.051269 
0.038500 0.027250 0.051233 
0.038120 0.027750 0.051197 
0.037867 0.028250 0.051173 
0.037614 0.028750 0.051149 
0.037360 0.029250 0.051125 
0.037107 0.029750 0.051101 
0.036853 0.030250 0.051077 
0.036347 0.030750 0.051028 
0.035840 0.031250 0.050980 
0.034953 0.031750 0.050896 
0.034319 0.032250 0.050836 
0.033559 0.032750 0.050764 
0.033052 0.033250 0.050716 
0.032419 0.033750 0.050656 
0.032039 0.034250 0.050620 
0.031532 0.034750 0.050572 
0.031405 0.035250 0.050560 
0.031405 0.035750 0.050560 
0.031532 0.036250 0.050572 
0.031659 0.036750 0.050584 
0.031659 0.037250 0.050584 
0.031786 0.037750 0.050596 
0.031912 0.038250 0.050608 
0.032039 0.038750 0.050620 
0.032166 0.039250 0.050632 
0.032292 0.039750 0.050644 
0.032419 0.040250 0.050656 
0.032419 0.040750 0.050656 
0.032419 0.041250 0.050656 
0.032546 0.041750 0.050668 
0.032419 0.042250 0.050656 
0.032419 0.042750 0.050656 
0.032292 0.043250 0.050644 
0.032292 0.043750 0.050644 
0.032039 0.044250 0.050620 
0.031786 0.044750 0.050596 
0.031532 0.045250 0.050572 
0.031279 0.045750 0.050548 
0.030899 0.046250 0.050512 
0.030519 0.046750 0.050476 
0.030138 0.047250 0.050440 
0.029505 0.047750 0.050380 
0.029252 0.048250 0.050356 
0.028745 0.048750 0.050308 
0.027985 0.049250 0.050236 
0.027605 0.049750 0.050200 
0.027224 0.050250 0.050164 
0.026591 0.050750 0.050104 
0.025831 0.051250 0.050032 
0.025324 0.051750 0.049984 
0.024691 0.052250 0.049924 
0.024057 0.052750 0.049864 
0.023424 0.053250 0.049804 
0.022790 0.053750 0.049744 
0.022030 0.054250 0.049672 
0.021396 0.054750 0.049612 
0.020890 0.055250 0.049564 
0.019623 0.055750 0.049444 
0.019243 0.056250 0.049408 
0.004040 -0.060000 0.048667 
0.005121 -0.059500 0.048786 
0.006067 -0.059000 0.048890 
0.006447 -0.058500 0.048926 
0.007587 -0.058000 0.049033 
0.008094 -0.057500 0.049081 
0.009107 -0.057000 0.049176 
0.009868 -0.056500 0.049248 
0.010248 -0.056000 0.049284 
0.010628 -0.055500 0.049319 
0.011261 -0.055000 0.049379 
0.011641 -0.054500 0.049415 
0.012275 -0.054000 0.049474 
0.012401 -0.053500 0.049486 
0.029124 -0.053000 0.051061 
0.030391 -0.052500 0.051180 
0.032164 -0.052000 0.051347 
0.032798 -0.051500 0.051407 
0.033431 -0.051000 0.051466 
0.034065 -0.050500 0.051526 
0.034952 -0.050000 0.051610 
0.035712 -0.049500 0.051681 
0.036092 -0.049000 0.051717 
0.036598 -0.048500 0.051765 
0.036979 -0.048000 0.051800 
0.037359 -0.047500 0.051836 
0.037612 -0.047000 0.051860 
0.037739 -0.046500 0.051872 
0.038119 -0.046000 0.051908 
0.038245 -0.045500 0.051920 
0.038372 -0.045000 0.051932 
0.038752 -0.044500 0.051967 
0.038879 -0.044000 0.051979 
0.039006 -0.043500 0.051991 
0.039132 -0.043000 0.052003 
0.039259 -0.042500 0.052015 
0.039386 -0.042000 0.052027 
0.039259 -0.041500 0.052015 
0.039259 -0.041000 0.052015 
0.039259 -0.040500 0.052015 
0.039259 -0.040000 0.052015 
0.039259 -0.039500 0.052015 
0.039132 -0.039000 0.052003 
0.039132 -0.038500 0.052003 
0.038879 -0.038000 0.051979 
0.038879 -0.037500 0.051979 
0.038752 -0.037000 0.051967 
0.038626 -0.036500 0.051955 
0.038499 -0.036000 0.051943 
0.038245 -0.035500 0.051920 
0.038119 -0.035000 0.051908 
0.037992 -0.034500 0.051896 
0.037865 -0.034000 0.051884 
0.037612 -0.033500 0.051860 
0.037485 -0.033000 0.051848 
0.037359 -0.032500 0.051836 
0.037232 -0.032000 0.051824 
0.037105 -0.031500 0.051812 
0.037105 -0.031000 0.051812 
0.037105 -0.030500 0.051812 
0.037232 -0.030000 0.051824 
0.037485 -0.029500 0.051848 
0.038119 -0.029000 0.051908 
0.038626 -0.028500 0.051955 
0.038752 -0.028000 0.051967 
0.039006 -0.027500 0.051991 
0.039386 -0.027000 0.052027 
0.039639 -0.026500 0.052051 
0.039892 -0.026000 0.052075 
0.040399 -0.025500 0.052122 
0.040906 -0.025000 0.052170 
0.041413 -0.024500 0.052218 
0.041919 -0.024000 0.052265 
0.042426 -0.023500 0.052313 
0.042933 -0.023000 0.052361 
0.043566 -0.022500 0.052421 
0.044200 -0.022000 0.052480 
0.044707 -0.021500 0.052528 
0.045467 -0.021000 0.052600 
0.045973 -0.020500 0.052647 
0.046607 -0.020000 0.052707 
0.047240 -0.019500 0.052767 
0.047747 -0.019000 0.052814 
0.048247 -0.018500 0.052862 
0.048728 -0.018000 0.052909 
0.049208 -0.017500 0.052957 
0.049568 -0.017000 0.052992 
0.049808 -0.016500 0.053016 
0.049928 -0.016000 0.053028 
0.050049 -0.015500 0.053040 
0.050049 -0.015000 0.053040 
0.050169 -0.014500 0.053052 
0.050289 -0.014000 0.053064 
0.050529 -0.013500 0.053087 
0.050889 -0.013000 0.053123 
0.051249 -0.012500 0.053159 
0.051490 -0.012000 0.053182 
0.051610 -0.011500 0.053194 
0.051730 -0.011000 0.053206 
0.051730 -0.010500 0.053206 
0.051970 -0.010000 0.053230 
0.052090 -0.009500 0.053242 
0.052330 -0.009000 0.053265 
0.052450 -0.008500 0.053277 
0.052570 -0.008000 0.053289 
0.052690 -0.007500 0.053301 
0.052811 -0.007000 0.053313 
0.053051 -0.006500 0.053337 
0.053291 -0.006000 0.053360 
0.053531 -0.005500 0.053384 
0.053651 -0.005000 0.053396 
0.053771 -0.004500 0.053408 
0.054011 -0.004000 0.053432 
0.054131 -0.003500 0.053443 
0.054252 -0.003000 0.053455 
0.054492 -0.002500 0.053479 
0.054612 -0.002000 0.053491 
0.054732 -0.001500 0.053503 
0.054732 -0.001000 0.053503 
0.054732 -0.000500 0.053503 
0.054492 0.000000 0.053479 
0.054131 0.000500 0.053443 
0.053651 0.001000 0.053396 
0.053531 0.001500 0.053384 
0.053411 0.002000 0.053372 
0.053411 0.002500 0.053372 
0.053531 0.003000 0.053384 
0.053531 0.003500 0.053384 
0.053531 0.004000 0.053384 
0.053531 0.004500 0.053384 
0.053411 0.005000 0.053372 
0.053291 0.005500 0.053360 
0.053171 0.006000 0.053348 
0.052811 0.006500 0.053313 
0.052570 0.007000 0.053289 
0.052210 0.007500 0.053254 
0.052210 0.008000 0.053254 
0.052210 0.008500 0.053254 
0.052210 0.009000 0.053254 
0.052090 0.009500 0.053242 
0.052090 0.010000 0.053242 
0.051850 0.010500 0.053218 
0.051490 0.011000 0.053182 
0.051129 0.011500 0.053147 
0.050649 0.012000 0.053099 
0.050169 0.012500 0.053052 
0.049808 0.013000 0.053016 
0.049328 0.013500 0.052969 
0.048848 0.014000 0.052921 
0.048247 0.014500 0.052862 
0.047874 0.015000 0.052826 
0.047620 0.015500 0.052802 
0.047367 0.016000 0.052778 
0.047240 0.016500 0.052767 
0.047240 0.017000 0.052767 
0.046987 0.017500 0.052743 
0.046860 0.018000 0.052731 
0.046733 0.018500 0.052719 
0.046607 0.019000 0.052707 
0.046353 0.019500 0.052683 
0.046100 0.020000 0.052659 
0.045720 0.020500 0.052623 
0.045087 0.021000 0.052564 
0.044453 0.021500 0.052504 
0.043566 0.022000 0.052421 
0.043186 0.022500 0.052385 
0.042553 0.023000 0.052325 
0.041919 0.023500 0.052265 
0.041539 0.024000 0.052230 
0.040653 0.024500 0.052146 
0.040146 0.025000 0.052099 
0.039892 0.025500 0.052075 
0.039766 0.026000 0.052063 
0.039386 0.026500 0.052027 
0.039132 0.027000 0.052003 
0.038752 0.027500 0.051967 
0.038245 0.028000 0.051920 
0.037992 0.028500 0.051896 
0.037865 0.029000 0.051884 
0.037612 0.029500 0.051860 
0.037485 0.030000 0.051848 
0.036852 0.030500 0.051788 
0.036598 0.031000 0.051765 
0.035965 0.031500 0.051705 
0.035205 0.032000 0.051633 
0.034571 0.032500 0.051574 
0.033811 0.033000 0.051502 
0.033305 0.033500 0.051455 
0.032671 0.034000 0.051395 
0.032164 0.034500 0.051347 
0.031658 0.035000 0.051299 
0.031404 0.035500 0.051276 
0.031404 0.036000 0.051276 
0.031531 0.036500 0.051288 
0.031531 0.037000 0.051288 
0.031658 0.037500 0.051299 
0.031784 0.038000 0.051311 
0.031911 0.038500 0.051323 
0.032038 0.039000 0.051335 
0.032164 0.039500 0.051347 
0.032291 0.040000 0.051359 
0.032418 0.040500 0.051371 
0.032418 0.041000 0.051371 
0.032545 0.041500 0.051383 
0.032545 0.042000 0.051383 
0.032545 0.042500 0.051383 
0.032418 0.043000 0.051371 
0.032418 0.043500 0.051371 
0.032291 0.044000 0.051359 
0.032164 0.044500 0.051347 
0.032038 0.045000 0.051335 
0.031784 0.045500 0.051311 
0.031404 0.046000 0.051276 
0.031024 0.046500 0.051240 
0.030771 0.047000 0.051216 
0.030264 0.047500 0.051168 
0.029757 0.048000 0.051120 
0.029377 0.048500 0.051085 
0.028997 0.049000 0.051049 
0.028237 0.049500 0.050977 
0.027857 0.050000 0.050942 
0.027350 0.050500 0.050894 
0.026844 0.051000 0.050846 
0.026210 0.051500 0.050786 
0.025703 0.052000 0.050739 
0.024943 0.052500 0.050667 
0.024437 0.053000 0.050619 
0.023677 0.053500 0.050548 
0.023043 0.054000 0.050488 
0.022536 0.054500 0.050441 
0.021903 0.055000 0.050381 
0.021396 0.055500 0.050333 
0.020256 0.056000 0.050226 
0.019496 0.056500 0.050154 
0.005659 -0.058750 0.049559 
0.006191 -0.058250 0.049616 
0.007331 -0.057750 0.049723 
0.008092 -0.057250 0.049794 
0.008978 -0.056750 0.049877 
0.009612 -0.056250 0.049936 
0.010245 -0.055750 0.049996 
0.010499 -0.055250 0.050020 
0.011006 -0.054750 0.050067 
0.011639 -0.054250 0.050127 
0.011893 -0.053750 0.050150 
0.012273 -0.053250 0.050186 
0.028870 -0.052750 0.051743 
0.030010 -0.052250 0.051850 
0.031658 -0.051750 0.052005 
0.032544 -0.051250 0.052088 
0.033431 -0.050750 0.052171 
0.033938 -0.050250 0.052219 
0.034572 -0.049750 0.052278 
0.035458 -0.049250 0.052361 
0.035965 -0.048750 0.052409 
0.036472 -0.048250 0.052456 
0.036979 -0.047750 0.052504 
0.037359 -0.047250 0.052540 
0.037612 -0.046750 0.052563 
0.037739 -0.046250 0.052575 
0.037992 -0.045750 0.052599 
0.038246 -0.045250 0.052623 
0.038499 -0.044750 0.052646 
0.038753 -0.044250 0.052670 
0.039006 -0.043750 0.052694 
0.039133 -0.043250 0.052706 
0.039260 -0.042750 0.052718 
0.039386 -0.042250 0.052730 
0.039386 -0.041750 0.052730 
0.039260 -0.041250 0.052718 
0.039386 -0.040750 0.052730 
0.039260 -0.040250 0.052718 
0.039260 -0.039750 0.052718 
0.039260 -0.039250 0.052718 
0.039133 -0.038750 0.052706 
0.039006 -0.038250 0.052694 
0.038879 -0.037750 0.052682 
0.038879 -0.037250 0.052682 
0.038626 -0.036750 0.052658 
0.038499 -0.036250 0.052646 
0.038373 -0.035750 0.052635 
0.038119 -0.035250 0.052611 
0.038119 -0.034750 0.052611 
0.037866 -0.034250 0.052587 
0.037612 -0.033750 0.052563 
0.037359 -0.033250 0.052540 
0.037232 -0.032750 0.052528 
0.037106 -0.032250 0.052516 
0.036979 -0.031750 0.052504 
0.036852 -0.031250 0.052492 
0.036726 -0.030750 0.052480 
0.036726 -0.030250 0.052480 
0.036726 -0.029750 0.052480 
0.036852 -0.029250 0.052492 
0.036979 -0.028750 0.052504 
