ply
format ascii 1.0
comment created by MATLAB ply_write
element vertex 1636
property float x
property float y
property float z
end_header
0.039283 -0.091161 0.116187 
0.039783 -0.091161 0.116190 
0.040283 -0.090934 0.116185 
0.040783 -0.090707 0.116180 
0.041283 -0.090481 0.116174 
0.041783 -0.090254 0.116169 
0.042283 -0.090141 0.116168 
0.042783 -0.089801 0.116160 
0.043283 -0.089462 0.116150 
0.043783 -0.089122 0.116141 
0.044283 -0.088669 0.116129 
0.044783 -0.088216 0.116116 
0.045283 -0.087757 0.116102 
0.045783 -0.087158 0.116078 
0.046283 -0.086081 0.116032 
0.046783 -0.085841 0.116024 
0.047283 -0.085123 0.115995 
0.047783 -0.083448 0.115923 
0.048283 -0.083208 0.115915 
0.048782 -0.078540 0.115710 
0.049282 -0.077942 0.115686 
0.049782 -0.076745 0.115635 
0.050282 -0.076266 0.115617 
0.050782 -0.076027 0.115609 
0.051282 -0.075069 0.115568 
-0.020971 -0.007756 0.112350 
-0.020471 -0.008772 0.112412 
-0.019971 -0.018174 0.112958 
-0.019471 -0.019063 0.113012 
-0.018971 -0.019953 0.113067 
-0.018471 -0.021223 0.113142 
-0.017971 -0.021477 0.113160 
-0.017472 -0.036977 0.114059 
-0.016972 -0.051270 0.114843 
-0.016472 -0.053065 0.114925 
-0.015972 -0.055817 0.115048 
-0.015471 -0.057133 0.115109 
-0.014971 -0.058330 0.115164 
-0.014471 -0.059527 0.115219 
-0.013971 -0.060604 0.115269 
-0.013471 -0.061322 0.115304 
-0.012971 -0.062040 0.115338 
-0.012471 -0.062638 0.115367 
-0.011971 -0.063834 0.115422 
-0.011471 -0.064672 0.115461 
-0.010971 -0.065749 0.115511 
-0.010471 -0.066347 0.115541 
-0.009971 -0.067304 0.115585 
-0.009471 -0.068262 0.115630 
-0.008971 -0.069219 0.115674 
-0.008471 -0.071014 0.115756 
-0.007971 -0.071732 0.115790 
-0.007471 -0.072091 0.115808 
-0.006971 -0.072809 0.115843 
-0.006471 -0.073646 0.115882 
-0.005971 -0.074723 0.115932 
-0.005471 -0.076040 0.115993 
-0.004971 -0.077715 0.116068 
-0.004471 -0.078553 0.116108 
-0.003971 -0.079510 0.116153 
-0.003471 -0.079988 0.116177 
-0.002970 -0.080946 0.116221 
-0.002470 -0.082023 0.116271 
-0.001970 -0.082621 0.116300 
-0.001470 -0.083219 0.116329 
-0.000970 -0.083817 0.116357 
-0.000470 -0.084416 0.116387 
0.000030 -0.084775 0.116406 
0.000530 -0.085133 0.116424 
0.001030 -0.085732 0.116453 
0.001530 -0.086210 0.116477 
0.002030 -0.086569 0.116495 
0.002530 -0.087048 0.116518 
0.003030 -0.087526 0.116542 
0.003530 -0.088111 0.116568 
0.004030 -0.088564 0.116586 
0.004530 -0.089017 0.116604 
0.005030 -0.089356 0.116618 
0.005530 -0.089696 0.116632 
0.006030 -0.089922 0.116642 
0.006530 -0.090261 0.116656 
0.007030 -0.090374 0.116663 
0.007530 -0.090714 0.116677 
0.008030 -0.090940 0.116687 
0.008530 -0.091166 0.116697 
0.009030 -0.091393 0.116708 
0.009530 -0.091506 0.116714 
0.010030 -0.091732 0.116725 
0.010530 -0.091845 0.116731 
0.011030 -0.091958 0.116737 
0.011530 -0.092071 0.116744 
0.012030 -0.092184 0.116750 
0.012530 -0.092297 0.116756 
0.013030 -0.092410 0.116764 
0.013530 -0.092523 0.116770 
0.014030 -0.092523 0.116772 
0.014530 -0.092523 0.116775 
0.015030 -0.092636 0.116781 
0.015530 -0.092636 0.116784 
0.016030 -0.092636 0.116787 
0.016530 -0.092636 0.116789 
0.017030 -0.092636 0.116792 
0.017530 -0.092749 0.116799 
0.018030 -0.092635 0.116797 
0.018530 -0.092635 0.116800 
0.019030 -0.092635 0.116803 
0.019530 -0.092522 0.116802 
0.020030 -0.092408 0.116801 
0.020530 -0.092295 0.116799 
0.021030 -0.092182 0.116799 
0.021530 -0.092068 0.116798 
0.022030 -0.091842 0.116793 
0.022530 -0.091728 0.116792 
0.023030 -0.091615 0.116790 
0.023530 -0.091389 0.116786 
0.024030 -0.091162 0.116780 
0.024530 -0.091049 0.116780 
0.025030 -0.090822 0.116774 
0.025530 -0.090482 0.116766 
0.026030 -0.090369 0.116765 
0.026530 -0.090256 0.116763 
0.027030 -0.090029 0.116759 
0.027530 -0.090029 0.116762 
0.028030 -0.090029 0.116764 
0.028530 -0.090142 0.116771 
0.029030 -0.090368 0.116781 
0.029530 -0.090481 0.116787 
0.030030 -0.090594 0.116793 
0.030530 -0.090821 0.116804 
0.031030 -0.090934 0.116810 
0.031530 -0.091160 0.116821 
0.032030 -0.091273 0.116827 
0.032530 -0.091499 0.116837 
0.033030 -0.091499 0.116840 
0.033530 -0.091499 0.116843 
0.034030 -0.091612 0.116849 
0.034530 -0.091725 0.116856 
0.035030 -0.091725 0.116859 
0.035530 -0.091838 0.116865 
0.036030 -0.091725 0.116864 
0.036530 -0.091724 0.116867 
0.037030 -0.091837 0.116873 
0.037530 -0.091724 0.116872 
0.038030 -0.091724 0.116875 
0.038530 -0.091724 0.116878 
0.039030 -0.091611 0.116876 
0.039530 -0.091610 0.116879 
0.040030 -0.091384 0.116874 
0.040530 -0.091270 0.116873 
0.041030 -0.091044 0.116868 
0.041530 -0.090817 0.116863 
0.042030 -0.090591 0.116858 
0.042529 -0.090364 0.116854 
0.043029 -0.090138 0.116848 
0.043529 -0.089798 0.116840 
0.044029 -0.089345 0.116827 
0.044529 -0.088892 0.116814 
0.045029 -0.088439 0.116802 
0.045529 -0.087986 0.116790 
0.046029 -0.087394 0.116767 
0.046529 -0.086556 0.116734 
0.047029 -0.086197 0.116721 
0.047529 -0.085718 0.116703 
0.048029 -0.083325 0.116600 
0.048529 -0.083444 0.116608 
0.049029 -0.078777 0.116405 
0.049529 -0.078298 0.116387 
0.050029 -0.076502 0.116312 
0.050529 -0.076383 0.116309 
0.051029 -0.076143 0.116300 
0.051528 -0.075305 0.116267 
0.052028 -0.074827 0.116248 
-0.020225 -0.008136 0.113106 
-0.019725 -0.008771 0.113144 
-0.019225 -0.019189 0.113743 
-0.018725 -0.019824 0.113781 
-0.018225 -0.020713 0.113836 
-0.017725 -0.021221 0.113867 
-0.017225 -0.036848 0.114764 
-0.016726 -0.051267 0.115547 
-0.016225 -0.052464 0.115601 
-0.015725 -0.055216 0.115723 
-0.015225 -0.056772 0.115793 
-0.014725 -0.057609 0.115831 
-0.014225 -0.058926 0.115891 
-0.013725 -0.060003 0.115940 
-0.013225 -0.060840 0.115979 
-0.012725 -0.061797 0.116023 
-0.012225 -0.062156 0.116042 
-0.011725 -0.062994 0.116080 
-0.011225 -0.063951 0.116125 
-0.010725 -0.065387 0.116189 
-0.010225 -0.065985 0.116218 
-0.009725 -0.067062 0.116267 
-0.009225 -0.068139 0.116317 
-0.008725 -0.069097 0.116360 
-0.008225 -0.071251 0.116457 
-0.007725 -0.071968 0.116490 
-0.007225 -0.072686 0.116524 
-0.006724 -0.073165 0.116547 
-0.006224 -0.075558 0.116653 
-0.005724 -0.076755 0.116707 
-0.005224 -0.077951 0.116762 
-0.004724 -0.078789 0.116801 
-0.004224 -0.079627 0.116840 
-0.003724 -0.080105 0.116864 
-0.003224 -0.081062 0.116907 
-0.002724 -0.082020 0.116952 
-0.002224 -0.082618 0.116980 
-0.001724 -0.083336 0.117013 
-0.001224 -0.083814 0.117037 
-0.000724 -0.084413 0.117065 
-0.000224 -0.085011 0.117094 
0.000276 -0.085370 0.117112 
0.000776 -0.085848 0.117136 
0.001276 -0.086327 0.117159 
0.001776 -0.086805 0.117182 
0.002276 -0.087284 0.117206 
0.002776 -0.087763 0.117230 
0.003276 -0.088222 0.117248 
0.003776 -0.088674 0.117266 
0.004276 -0.089127 0.117283 
0.004776 -0.089467 0.117297 
0.005276 -0.089806 0.117310 
0.005776 -0.090032 0.117321 
0.006276 -0.090372 0.117335 
0.006776 -0.090598 0.117345 
0.007276 -0.090824 0.117355 
0.007776 -0.091164 0.117368 
0.008276 -0.091390 0.117379 
0.008776 -0.091503 0.117385 
0.009276 -0.091729 0.117395 
0.009777 -0.091955 0.117405 
0.010277 -0.092069 0.117411 
0.010777 -0.092182 0.117417 
0.011277 -0.092295 0.117425 
0.011777 -0.092408 0.117431 
0.012277 -0.092408 0.117433 
0.012777 -0.092521 0.117440 
0.013277 -0.092521 0.117442 
0.013777 -0.092634 0.117448 
0.014277 -0.092633 0.117451 
0.014777 -0.092746 0.117458 
0.015277 -0.092859 0.117464 
0.015777 -0.092859 0.117467 
0.016277 -0.092859 0.117470 
0.016776 -0.092859 0.117472 
0.017276 -0.092859 0.117475 
0.017776 -0.092972 0.117481 
0.018276 -0.092859 0.117481 
0.018776 -0.092858 0.117483 
0.019276 -0.092858 0.117486 
0.019776 -0.092858 0.117489 
0.020276 -0.092745 0.117488 
0.020776 -0.092632 0.117486 
0.021276 -0.092518 0.117485 
0.021776 -0.092518 0.117488 
0.022276 -0.092292 0.117484 
0.022776 -0.092178 0.117482 
0.023276 -0.091952 0.117478 
0.023776 -0.091838 0.117477 
0.024276 -0.091612 0.117472 
0.024776 -0.091385 0.117467 
0.025276 -0.091159 0.117462 
0.025776 -0.090819 0.117454 
0.026276 -0.090819 0.117457 
0.026776 -0.090705 0.117455 
0.027276 -0.090592 0.117455 
0.027776 -0.090592 0.117457 
0.028276 -0.090592 0.117460 
0.028776 -0.090705 0.117466 
0.029276 -0.090818 0.117473 
0.029776 -0.091044 0.117483 
0.030276 -0.091157 0.117489 
0.030776 -0.091270 0.117496 
0.031276 -0.091497 0.117506 
0.031776 -0.091496 0.117508 
0.032276 -0.091723 0.117518 
0.032776 -0.091723 0.117521 
0.033276 -0.091836 0.117528 
0.033776 -0.091835 0.117531 
0.034276 -0.091948 0.117537 
0.034776 -0.092062 0.117543 
0.035276 -0.092061 0.117546 
0.035776 -0.092061 0.117548 
0.036276 -0.092061 0.117551 
0.036776 -0.092061 0.117554 
0.037276 -0.092061 0.117556 
0.037776 -0.092061 0.117559 
0.038276 -0.092061 0.117562 
0.038776 -0.092060 0.117564 
0.039276 -0.091947 0.117564 
0.039776 -0.091834 0.117563 
0.040276 -0.091720 0.117561 
0.040776 -0.091607 0.117560 
0.041276 -0.091267 0.117553 
0.041776 -0.091154 0.117551 
0.042276 -0.090814 0.117543 
0.042776 -0.090588 0.117538 
0.043276 -0.090248 0.117529 
0.043776 -0.090021 0.117525 
0.044276 -0.089568 0.117513 
0.044776 -0.089115 0.117501 
0.045276 -0.088662 0.117488 
0.045776 -0.088210 0.117476 
0.046276 -0.087391 0.117447 
0.046775 -0.086912 0.117429 
0.047275 -0.086194 0.117401 
0.047775 -0.085955 0.117393 
0.048275 -0.083322 0.117282 
0.048775 -0.083441 0.117290 
0.049275 -0.078893 0.117096 
0.049775 -0.078534 0.117083 
0.050275 -0.076619 0.117003 
0.050775 -0.076499 0.117001 
0.051275 -0.076021 0.116982 
0.051775 -0.075422 0.116960 
0.052275 -0.074823 0.116936 
-0.020479 0.002383 0.113263 
-0.019979 0.001170 0.113330 
-0.019479 0.000496 0.113369 
-0.018979 -0.018553 0.114430 
-0.018479 -0.019442 0.114483 
-0.017979 -0.019823 0.114507 
-0.017479 -0.020712 0.114561 
-0.016979 -0.020966 0.114577 
-0.016479 -0.051384 0.116255 
-0.015979 -0.052342 0.116298 
-0.015479 -0.054136 0.116377 
-0.014979 -0.056051 0.116462 
-0.014479 -0.057248 0.116515 
-0.013979 -0.058085 0.116553 
-0.013479 -0.059641 0.116622 
-0.012979 -0.060359 0.116656 
-0.012479 -0.061436 0.116705 
-0.011979 -0.061914 0.116727 
-0.011479 -0.062512 0.116756 
-0.010979 -0.063350 0.116794 
-0.010479 -0.065145 0.116873 
-0.009979 -0.065624 0.116896 
-0.009479 -0.066820 0.116950 
-0.008978 -0.068256 0.117013 
-0.008478 -0.069931 0.117088 
-0.007978 -0.071726 0.117167 
-0.007478 -0.072683 0.117210 
-0.006978 -0.074478 0.117289 
-0.006478 -0.075914 0.117353 
-0.005978 -0.077231 0.117412 
-0.005478 -0.078068 0.117450 
-0.004978 -0.078906 0.117488 
-0.004478 -0.079504 0.117516 
-0.003978 -0.080102 0.117544 
-0.003478 -0.081179 0.117593 
-0.002978 -0.081777 0.117621 
-0.002478 -0.082735 0.117665 
-0.001978 -0.083333 0.117693 
-0.001478 -0.083811 0.117716 
-0.000978 -0.084410 0.117744 
-0.000478 -0.085008 0.117772 
0.000022 -0.085486 0.117796 
0.000522 -0.086085 0.117824 
0.001022 -0.086443 0.117842 
0.001522 -0.086922 0.117864 
0.002022 -0.087401 0.117888 
0.002523 -0.087992 0.117914 
0.003023 -0.088332 0.117928 
0.003523 -0.088785 0.117945 
0.004023 -0.089237 0.117962 
0.004523 -0.089463 0.117972 
0.005023 -0.089803 0.117986 
0.005523 -0.090142 0.117999 
0.006023 -0.090369 0.118009 
0.006523 -0.090708 0.118023 
0.007023 -0.090934 0.118032 
0.007523 -0.091274 0.118046 
0.008023 -0.091500 0.118056 
0.008523 -0.091613 0.118062 
0.009023 -0.091840 0.118072 
0.009523 -0.092066 0.118082 
0.010023 -0.092179 0.118088 
0.010523 -0.092292 0.118095 
0.011023 -0.092292 0.118097 
0.011523 -0.092405 0.118103 
0.012023 -0.092518 0.118110 
0.012523 -0.092518 0.118112 
0.013023 -0.092631 0.118119 
0.013523 -0.092744 0.118126 
0.014023 -0.092744 0.118128 
0.014523 -0.092857 0.118134 
0.015023 -0.092970 0.118141 
0.015523 -0.092970 0.118143 
0.016023 -0.092970 0.118146 
0.016523 -0.093083 0.118152 
0.017023 -0.093083 0.118155 
0.017523 -0.093082 0.118157 
0.018023 -0.093196 0.118164 
0.018523 -0.093082 0.118163 
0.019023 -0.093082 0.118165 
0.019523 -0.093082 0.118168 
0.020023 -0.093082 0.118171 
0.020523 -0.092968 0.118170 
0.021023 -0.092855 0.118169 
0.021523 -0.092855 0.118172 
0.022023 -0.092742 0.118171 
0.022523 -0.092628 0.118170 
0.023023 -0.092515 0.118169 
0.023523 -0.092401 0.118168 
0.024023 -0.092175 0.118164 
0.024523 -0.091948 0.118159 
0.025023 -0.091722 0.118154 
0.025523 -0.091495 0.118150 
0.026023 -0.091269 0.118146 
0.026523 -0.091042 0.118140 
0.027023 -0.091042 0.118143 
0.027523 -0.090929 0.118142 
0.028023 -0.090928 0.118145 
0.028522 -0.090928 0.118148 
0.029022 -0.091041 0.118154 
0.029523 -0.091268 0.118164 
0.030023 -0.091381 0.118171 
0.030523 -0.091494 0.118177 
0.031023 -0.091720 0.118186 
0.031523 -0.091833 0.118192 
0.032023 -0.091833 0.118195 
0.032523 -0.091946 0.118202 
0.033023 -0.092059 0.118208 
0.033523 -0.092172 0.118215 
0.034023 -0.092172 0.118217 
0.034523 -0.092172 0.118220 
0.035023 -0.092285 0.118226 
0.035523 -0.092285 0.118229 
0.036023 -0.092285 0.118231 
0.036523 -0.092171 0.118231 
0.037023 -0.092171 0.118233 
0.037523 -0.092284 0.118240 
0.038023 -0.092284 0.118242 
0.038523 -0.092284 0.118245 
0.039022 -0.092284 0.118248 
0.039522 -0.092171 0.118247 
0.040022 -0.092057 0.118246 
0.040522 -0.091944 0.118245 
0.041022 -0.091717 0.118240 
0.041522 -0.091604 0.118239 
0.042022 -0.091377 0.118235 
0.042522 -0.091038 0.118226 
0.043022 -0.090698 0.118219 
0.043522 -0.090358 0.118210 
0.044022 -0.090018 0.118202 
0.044522 -0.089679 0.118195 
0.045022 -0.089226 0.118182 
0.045522 -0.088773 0.118170 
0.046022 -0.088206 0.118155 
0.046522 -0.087627 0.118137 
0.047022 -0.087029 0.118114 
0.047522 -0.086311 0.118086 
0.048022 -0.085951 0.118073 
0.048522 -0.083677 0.117980 
0.049021 -0.079130 0.117789 
0.049521 -0.079010 0.117786 
0.050021 -0.078531 0.117769 
0.050521 -0.077693 0.117735 
0.051021 -0.076736 0.117697 
0.051521 -0.076137 0.117674 
0.052021 -0.075539 0.117651 
0.052521 -0.074461 0.117609 
-0.020233 0.001845 0.114027 
-0.019733 0.000767 0.114086 
-0.019233 0.000228 0.114118 
-0.018733 -0.000312 0.114149 
-0.018233 -0.018551 0.115157 
-0.017733 -0.018932 0.115180 
-0.017233 -0.019567 0.115218 
-0.016733 -0.045737 0.116685 
-0.016233 -0.051382 0.116958 
-0.015733 -0.052100 0.116991 
-0.015233 -0.053535 0.117054 
-0.014733 -0.054732 0.117107 
-0.014233 -0.056527 0.117185 
-0.013733 -0.057484 0.117227 
-0.013233 -0.059040 0.117295 
-0.012733 -0.059877 0.117333 
-0.012233 -0.060715 0.117370 
-0.011733 -0.061433 0.117404 
-0.011232 -0.062151 0.117436 
-0.010732 -0.062988 0.117475 
-0.010232 -0.064783 0.117552 
-0.009732 -0.065501 0.117585 
-0.009232 -0.067296 0.117663 
-0.008732 -0.068851 0.117731 
-0.008232 -0.071604 0.117849 
-0.007732 -0.073040 0.117911 
-0.007232 -0.074835 0.117989 
-0.006732 -0.076151 0.118047 
-0.006232 -0.077228 0.118096 
-0.005732 -0.078185 0.118138 
-0.005232 -0.078783 0.118166 
-0.004732 -0.079381 0.118193 
-0.004231 -0.079980 0.118221 
-0.003731 -0.081176 0.118274 
-0.003231 -0.081655 0.118297 
-0.002731 -0.082612 0.118339 
-0.002231 -0.083330 0.118373 
-0.001731 -0.083928 0.118400 
-0.001231 -0.084646 0.118432 
-0.000731 -0.085124 0.118456 
-0.000231 -0.085723 0.118483 
0.000269 -0.086201 0.118506 
0.000769 -0.086680 0.118529 
0.001269 -0.087039 0.118547 
0.001769 -0.087637 0.118575 
0.002269 -0.088102 0.118594 
0.002769 -0.088555 0.118611 
0.003269 -0.088895 0.118624 
0.003769 -0.089234 0.118638 
0.004269 -0.089574 0.118651 
0.004769 -0.089913 0.118664 
0.005269 -0.090140 0.118674 
0.005769 -0.090366 0.118683 
0.006269 -0.090705 0.118697 
0.006769 -0.090932 0.118707 
0.007269 -0.091271 0.118720 
0.007769 -0.091497 0.118730 
0.008269 -0.091610 0.118736 
0.008769 -0.091837 0.118745 
0.009269 -0.091950 0.118751 
0.009769 -0.092176 0.118761 
0.010269 -0.092289 0.118768 
0.010769 -0.092402 0.118774 
0.011269 -0.092515 0.118781 
0.011769 -0.092515 0.118783 
0.012269 -0.092628 0.118789 
0.012769 -0.092741 0.118795 
0.013269 -0.092854 0.118802 
0.013769 -0.092967 0.118808 
0.014269 -0.092967 0.118810 
0.014769 -0.093194 0.118820 
0.015269 -0.093193 0.118823 
0.015769 -0.093193 0.118825 
0.016269 -0.093306 0.118832 
0.016769 -0.093306 0.118834 
0.017269 -0.093419 0.118840 
0.017769 -0.093419 0.118843 
0.018269 -0.093419 0.118846 
0.018769 -0.093419 0.118848 
0.019269 -0.093306 0.118848 
0.019769 -0.093305 0.118850 
0.020269 -0.093305 0.118853 
0.020769 -0.093192 0.118852 
0.021269 -0.093078 0.118852 
0.021769 -0.093078 0.118854 
0.022269 -0.092965 0.118853 
0.022769 -0.092852 0.118853 
0.023269 -0.092852 0.118855 
0.023769 -0.092625 0.118851 
0.024269 -0.092398 0.118847 
0.024769 -0.092285 0.118846 
0.025269 -0.092058 0.118841 
0.025769 -0.091832 0.118837 
0.026269 -0.091492 0.118829 
0.026769 -0.091379 0.118828 
0.027269 -0.091265 0.118827 
0.027769 -0.091265 0.118830 
0.028269 -0.091152 0.118829 
0.028769 -0.091265 0.118835 
0.029269 -0.091378 0.118842 
0.029769 -0.091491 0.118848 
0.030269 -0.091604 0.118854 
0.030769 -0.091830 0.118863 
0.031269 -0.091944 0.118870 
0.031769 -0.092057 0.118876 
0.032269 -0.092056 0.118878 
0.032769 -0.092170 0.118885 
0.033269 -0.092283 0.118892 
0.033769 -0.092282 0.118894 
0.034269 -0.092396 0.118901 
0.034769 -0.092395 0.118903 
0.035269 -0.092395 0.118906 
0.035769 -0.092508 0.118912 
0.036269 -0.092395 0.118911 
0.036769 -0.092395 0.118914 
0.037269 -0.092508 0.118920 
0.037769 -0.092508 0.118923 
0.038269 -0.092508 0.118925 
0.038769 -0.092507 0.118928 
0.039269 -0.092394 0.118927 
0.039769 -0.092394 0.118930 
0.040269 -0.092281 0.118929 
0.040769 -0.092054 0.118924 
0.041269 -0.091941 0.118923 
0.041769 -0.091601 0.118916 
0.042269 -0.091487 0.118915 
0.042769 -0.091148 0.118907 
0.043269 -0.090695 0.118896 
0.043769 -0.090468 0.118891 
0.044269 -0.090128 0.118883 
0.044768 -0.089789 0.118875 
0.045268 -0.089336 0.118864 
0.045768 -0.088769 0.118849 
0.046268 -0.088203 0.118834 
0.046768 -0.087744 0.118821 
0.047268 -0.087026 0.118794 
0.047768 -0.086307 0.118766 
0.048268 -0.085469 0.118734 
0.048768 -0.084751 0.118706 
0.049268 -0.079246 0.118479 
0.049768 -0.079007 0.118471 
0.050268 -0.078528 0.118453 
0.050768 -0.077929 0.118431 
0.051268 -0.076972 0.118394 
0.051767 -0.076254 0.118366 
0.052267 -0.075655 0.118344 
0.052767 -0.072903 0.118232 
0.053267 -0.073022 0.118239 
-0.019987 0.002251 0.114741 
-0.019487 0.001038 0.114808 
-0.018987 0.000229 0.114853 
-0.018487 -0.000850 0.114913 
-0.017987 -0.001119 0.114929 
-0.017487 -0.017914 0.115847 
-0.016987 -0.018168 0.115864 
-0.016487 -0.045989 0.117406 
-0.015987 -0.046243 0.117422 
-0.015487 -0.051618 0.117674 
-0.014987 -0.053533 0.117755 
-0.014487 -0.054490 0.117798 
-0.013987 -0.055687 0.117849 
-0.013486 -0.057003 0.117906 
-0.012986 -0.057840 0.117944 
-0.012486 -0.059157 0.118001 
-0.011986 -0.060353 0.118053 
-0.011486 -0.060832 0.118075 
-0.010986 -0.061550 0.118107 
-0.010486 -0.062866 0.118164 
-0.009986 -0.064062 0.118217 
-0.009486 -0.065857 0.118293 
-0.008986 -0.067413 0.118360 
-0.008486 -0.069447 0.118447 
-0.007986 -0.073276 0.118607 
-0.007485 -0.074832 0.118674 
-0.006985 -0.075909 0.118721 
-0.006485 -0.077105 0.118774 
-0.005985 -0.078062 0.118816 
-0.005485 -0.078541 0.118838 
-0.004985 -0.079139 0.118866 
-0.004485 -0.079737 0.118893 
-0.003985 -0.080814 0.118940 
-0.003485 -0.081652 0.118977 
-0.002985 -0.082489 0.119014 
-0.002485 -0.083207 0.119047 
-0.001985 -0.084045 0.119084 
-0.001485 -0.084882 0.119121 
-0.000985 -0.085480 0.119149 
-0.000485 -0.085959 0.119171 
0.000015 -0.086557 0.119199 
0.000515 -0.086916 0.119216 
0.001015 -0.087275 0.119233 
0.001515 -0.087753 0.119256 
0.002015 -0.088326 0.119278 
0.002515 -0.088665 0.119290 
0.003015 -0.089005 0.119303 
0.003515 -0.089231 0.119313 
0.004015 -0.089571 0.119326 
0.004515 -0.089797 0.119335 
0.005015 -0.090137 0.119348 
0.005516 -0.090363 0.119358 
0.006016 -0.090589 0.119368 
0.006516 -0.090815 0.119377 
0.007016 -0.091155 0.119390 
0.007516 -0.091381 0.119400 
0.008016 -0.091608 0.119409 
0.008516 -0.091721 0.119416 
0.009016 -0.091947 0.119425 
0.009516 -0.092173 0.119435 
0.010016 -0.092286 0.119441 
0.010516 -0.092399 0.119447 
0.011016 -0.092512 0.119453 
0.011516 -0.092626 0.119459 
0.012016 -0.092739 0.119465 
0.012516 -0.092852 0.119472 
0.013016 -0.092965 0.119478 
0.013516 -0.093078 0.119484 
0.014016 -0.093191 0.119490 
0.014516 -0.093304 0.119496 
0.015016 -0.093417 0.119502 
0.015516 -0.093417 0.119505 
0.016016 -0.093530 0.119511 
0.016516 -0.093530 0.119514 
0.017016 -0.093643 0.119520 
0.017516 -0.093530 0.119519 
0.018016 -0.093530 0.119522 
0.018516 -0.093643 0.119528 
0.019016 -0.093529 0.119527 
0.019516 -0.093529 0.119530 
0.020016 -0.093416 0.119529 
0.020516 -0.093529 0.119535 
0.021016 -0.093415 0.119535 
0.021516 -0.093302 0.119534 
0.022016 -0.093302 0.119536 
0.022516 -0.093189 0.119536 
0.023016 -0.093075 0.119535 
0.023516 -0.093075 0.119538 
0.024016 -0.092962 0.119537 
0.024516 -0.092622 0.119529 
0.025015 -0.092508 0.119528 
0.025515 -0.092282 0.119524 
0.026015 -0.091942 0.119516 
0.026515 -0.091716 0.119512 
0.027015 -0.091602 0.119511 
0.027515 -0.091489 0.119511 
0.028015 -0.091375 0.119510 
0.028515 -0.091375 0.119513 
0.029015 -0.091375 0.119515 
0.029515 -0.091601 0.119525 
0.030015 -0.091715 0.119531 
0.030515 -0.091828 0.119537 
0.031015 -0.091941 0.119543 
0.031515 -0.092167 0.119553 
0.032015 -0.092167 0.119556 
0.032515 -0.092280 0.119562 
0.033015 -0.092393 0.119568 
0.033515 -0.092393 0.119570 
0.034015 -0.092506 0.119577 
0.034515 -0.092506 0.119579 
0.035015 -0.092619 0.119585 
0.035515 -0.092619 0.119588 
0.036015 -0.092619 0.119591 
0.036515 -0.092618 0.119593 
0.037015 -0.092618 0.119596 
0.037515 -0.092731 0.119602 
0.038015 -0.092731 0.119605 
0.038515 -0.092731 0.119608 
0.039015 -0.092618 0.119607 
0.039515 -0.092504 0.119606 
0.040015 -0.092504 0.119609 
0.040515 -0.092278 0.119605 
0.041015 -0.092164 0.119604 
0.041515 -0.091938 0.119600 
0.042015 -0.091711 0.119595 
0.042515 -0.091484 0.119591 
0.043015 -0.091258 0.119587 
0.043515 -0.090805 0.119576 
0.044015 -0.090465 0.119568 
0.044515 -0.090125 0.119560 
0.045015 -0.089785 0.119553 
0.045515 -0.089219 0.119538 
0.046015 -0.088879 0.119530 
0.046515 -0.088200 0.119513 
0.047015 -0.087621 0.119496 
0.047515 -0.086903 0.119468 
0.048014 -0.086184 0.119441 
0.048514 -0.085347 0.119409 
0.049014 -0.084987 0.119398 
0.049514 -0.079363 0.119168 
0.050014 -0.079004 0.119156 
0.050514 -0.078286 0.119128 
0.051014 -0.077807 0.119112 
0.051514 -0.076730 0.119071 
0.052014 -0.076251 0.119053 
0.052514 -0.075772 0.119036 
0.053014 -0.073019 0.118926 
0.053514 -0.073139 0.118933 
-0.019240 0.001713 0.115507 
-0.018740 0.000634 0.115566 
-0.018240 -0.000444 0.115625 
-0.017740 -0.001388 0.115677 
-0.017240 -0.001388 0.115680 
-0.016740 -0.012070 0.116255 
-0.016241 -0.015626 0.116452 
-0.015741 -0.047256 0.118184 
-0.015241 -0.051017 0.118352 
-0.014741 -0.051735 0.118384 
-0.014240 -0.053889 0.118474 
-0.013740 -0.054966 0.118521 
-0.013240 -0.056282 0.118577 
-0.012740 -0.057000 0.118608 
-0.012240 -0.058316 0.118665 
-0.011740 -0.059752 0.118726 
-0.011240 -0.060590 0.118762 
-0.010740 -0.061188 0.118789 
-0.010240 -0.062145 0.118831 
-0.009740 -0.063341 0.118882 
-0.009240 -0.066213 0.119002 
-0.008739 -0.069923 0.119154 
-0.008239 -0.073034 0.119284 
-0.007739 -0.074829 0.119360 
-0.007239 -0.075906 0.119406 
-0.006739 -0.076863 0.119447 
-0.006239 -0.077940 0.119493 
-0.005739 -0.078418 0.119516 
-0.005239 -0.079017 0.119543 
-0.004739 -0.079495 0.119565 
-0.004239 -0.080213 0.119596 
-0.003739 -0.081768 0.119662 
-0.003239 -0.082486 0.119695 
-0.002739 -0.083324 0.119731 
-0.002239 -0.084401 0.119778 
-0.001739 -0.085238 0.119814 
-0.001238 -0.085836 0.119841 
-0.000738 -0.086315 0.119864 
-0.000238 -0.086793 0.119886 
0.000262 -0.087272 0.119908 
0.000762 -0.087631 0.119925 
0.001262 -0.087870 0.119937 
0.001762 -0.088323 0.119954 
0.002262 -0.088662 0.119967 
0.002762 -0.089002 0.119979 
0.003262 -0.089341 0.119992 
0.003762 -0.089568 0.120001 
0.004262 -0.089794 0.120011 
0.004762 -0.090020 0.120019 
0.005262 -0.090247 0.120029 
0.005762 -0.090473 0.120039 
0.006262 -0.090699 0.120048 
0.006762 -0.090926 0.120058 
0.007262 -0.091152 0.120067 
0.007762 -0.091491 0.120080 
0.008262 -0.091718 0.120089 
0.008762 -0.091831 0.120095 
0.009262 -0.092057 0.120105 
0.009762 -0.092283 0.120114 
0.010262 -0.092397 0.120120 
0.010762 -0.092510 0.120126 
0.011262 -0.092736 0.120135 
0.011762 -0.092849 0.120142 
0.012262 -0.092962 0.120148 
0.012762 -0.093075 0.120154 
0.013262 -0.093188 0.120160 
0.013762 -0.093301 0.120165 
0.014262 -0.093414 0.120171 
0.014762 -0.093414 0.120174 
0.015262 -0.093527 0.120180 
0.015762 -0.093641 0.120186 
0.016262 -0.093640 0.120189 
0.016762 -0.093640 0.120192 
0.017262 -0.093753 0.120198 
0.017762 -0.093753 0.120200 
0.018262 -0.093640 0.120200 
0.018762 -0.093753 0.120206 
0.019262 -0.093640 0.120205 
0.019762 -0.093639 0.120208 
0.020262 -0.093639 0.120210 
0.020762 -0.093639 0.120213 
0.021262 -0.093526 0.120212 
0.021762 -0.093526 0.120215 
0.022262 -0.093412 0.120214 
0.022762 -0.093412 0.120217 
0.023262 -0.093299 0.120216 
0.023762 -0.093185 0.120216 
0.024262 -0.093072 0.120216 
0.024762 -0.092845 0.120211 
0.025262 -0.092732 0.120211 
0.025762 -0.092505 0.120206 
0.026262 -0.092166 0.120199 
0.026762 -0.091939 0.120195 
0.027262 -0.091826 0.120195 
0.027762 -0.091599 0.120190 
0.028262 -0.091599 0.120193 
0.028762 -0.091599 0.120196 
0.029262 -0.091712 0.120202 
0.029762 -0.091825 0.120208 
0.030262 -0.091825 0.120211 
0.030762 -0.092051 0.120220 
0.031262 -0.092164 0.120225 
0.031762 -0.092277 0.120232 
0.032262 -0.092390 0.120238 
0.032762 -0.092503 0.120244 
0.033262 -0.092503 0.120247 
0.033762 -0.092503 0.120249 
0.034262 -0.092616 0.120255 
0.034762 -0.092616 0.120258 
0.035262 -0.092616 0.120261 
0.035762 -0.092729 0.120267 
0.036262 -0.092842 0.120273 
0.036762 -0.092729 0.120272 
0.037262 -0.092842 0.120278 
0.037762 -0.092842 0.120281 
0.038262 -0.092841 0.120284 
0.038762 -0.092728 0.120283 
0.039262 -0.092728 0.120286 
0.039762 -0.092615 0.120285 
0.040262 -0.092388 0.120281 
0.040762 -0.092275 0.120280 
0.041262 -0.092161 0.120279 
0.041762 -0.091935 0.120276 
0.042262 -0.091821 0.120275 
0.042761 -0.091595 0.120271 
0.043261 -0.091255 0.120263 
0.043761 -0.090915 0.120256 
0.044261 -0.090462 0.120245 
0.044761 -0.090122 0.120238 
0.045261 -0.089782 0.120231 
0.045761 -0.089216 0.120216 
0.046261 -0.088650 0.120203 
0.046761 -0.088084 0.120188 
0.047261 -0.087498 0.120169 
0.047761 -0.086660 0.120139 
0.048261 -0.086062 0.120117 
0.048761 -0.085463 0.120095 
0.049260 -0.079360 0.119850 
0.049760 -0.079240 0.119848 
0.050260 -0.078761 0.119831 
0.050760 -0.078402 0.119819 
0.051260 -0.076727 0.119754 
0.051760 -0.076487 0.119747 
0.052260 -0.076248 0.119740 
0.052760 -0.075769 0.119723 
0.053260 -0.073136 0.119618 
-0.018994 0.002119 0.116222 
-0.018494 0.001579 0.116252 
-0.017994 0.000366 0.116317 
-0.017494 -0.001252 0.116404 
-0.016994 -0.001387 0.116414 
-0.016494 -0.001117 0.116402 
-0.015994 -0.015244 0.117157 
-0.015495 -0.046873 0.118870 
-0.014995 -0.046238 0.118838 
-0.014494 -0.051254 0.119068 
-0.013994 -0.053049 0.119142 
-0.013494 -0.054365 0.119198 
-0.012994 -0.055442 0.119243 
-0.012494 -0.056638 0.119293 
-0.011994 -0.057236 0.119320 
-0.011494 -0.058792 0.119384 
-0.010994 -0.059749 0.119426 
-0.010494 -0.060946 0.119477 
-0.009994 -0.061663 0.119508 
-0.009494 -0.061903 0.119520 
-0.008993 -0.069561 0.119829 
-0.008493 -0.072672 0.119956 
-0.007993 -0.074467 0.120030 
-0.007493 -0.075664 0.120080 
-0.006993 -0.076860 0.120131 
-0.006493 -0.077817 0.120172 
-0.005993 -0.078415 0.120199 
-0.005493 -0.079014 0.120225 
-0.004993 -0.079492 0.120247 
-0.004492 -0.080210 0.120278 
-0.003992 -0.081765 0.120343 
-0.003492 -0.082723 0.120385 
-0.002992 -0.083799 0.120430 
-0.002492 -0.084757 0.120471 
-0.001992 -0.085475 0.120502 
-0.001492 -0.086073 0.120529 
-0.000992 -0.086671 0.120555 
-0.000492 -0.087030 0.120572 
0.000008 -0.087389 0.120589 
0.000508 -0.087747 0.120606 
0.001008 -0.087980 0.120617 
0.001508 -0.088320 0.120629 
0.002008 -0.088659 0.120642 
0.002508 -0.088999 0.120654 
0.003008 -0.089112 0.120660 
0.003508 -0.089452 0.120673 
0.004008 -0.089678 0.120682 
0.004508 -0.089904 0.120692 
0.005008 -0.090017 0.120698 
0.005508 -0.090357 0.120710 
0.006008 -0.090470 0.120716 
0.006508 -0.090809 0.120728 
0.007008 -0.091036 0.120738 
0.007508 -0.091262 0.120746 
0.008008 -0.091488 0.120756 
0.008508 -0.091715 0.120766 
0.009008 -0.091941 0.120774 
0.009508 -0.092167 0.120784 
0.010008 -0.092394 0.120793 
0.010508 -0.092620 0.120802 
0.011008 -0.092733 0.120808 
0.011508 -0.092846 0.120814 
0.012009 -0.093073 0.120823 
0.012509 -0.093186 0.120829 
0.013009 -0.093186 0.120832 
0.013509 -0.093299 0.120838 
0.014009 -0.093525 0.120847 
0.014509 -0.093525 0.120850 
0.015009 -0.093638 0.120855 
0.015509 -0.093638 0.120858 
0.016009 -0.093751 0.120864 
0.016509 -0.093751 0.120867 
0.017009 -0.093751 0.120869 
0.017509 -0.093864 0.120876 
0.018009 -0.093750 0.120875 
0.018509 -0.093863 0.120881 
0.019009 -0.093863 0.120884 
0.019508 -0.093750 0.120883 
0.020008 -0.093750 0.120886 
0.020508 -0.093750 0.120888 
0.021008 -0.093749 0.120891 
0.021508 -0.093749 0.120894 
0.022008 -0.093636 0.120893 
0.022508 -0.093636 0.120895 
0.023008 -0.093522 0.120896 
0.023508 -0.093409 0.120895 
0.024008 -0.093409 0.120898 
0.024508 -0.093182 0.120893 
0.025008 -0.092956 0.120890 
0.025508 -0.092842 0.120889 
0.026008 -0.092616 0.120885 
0.026508 -0.092389 0.120882 
0.027008 -0.092162 0.120878 
0.027508 -0.091936 0.120873 
0.028008 -0.091822 0.120874 
0.028508 -0.091822 0.120876 
0.029008 -0.091822 0.120879 
0.029508 -0.091822 0.120882 
0.030008 -0.091935 0.120887 
0.030508 -0.092048 0.120893 
0.031008 -0.092161 0.120899 
0.031508 -0.092274 0.120905 
0.032008 -0.092274 0.120908 
0.032508 -0.092387 0.120914 
0.033008 -0.092500 0.120919 
0.033508 -0.092500 0.120922 
0.034008 -0.092613 0.120928 
0.034508 -0.092613 0.120931 
0.035008 -0.092613 0.120933 
0.035508 -0.092726 0.120940 
0.036008 -0.092726 0.120942 
0.036508 -0.092839 0.120948 
0.037008 -0.092839 0.120951 
0.037508 -0.092839 0.120954 
0.038008 -0.092839 0.120956 
0.038508 -0.092839 0.120959 
0.039008 -0.092838 0.120962 
0.039508 -0.092725 0.120961 
0.040008 -0.092612 0.120960 
0.040508 -0.092498 0.120959 
0.041008 -0.092385 0.120960 
0.041508 -0.092158 0.120955 
0.042008 -0.092045 0.120955 
0.042508 -0.091818 0.120951 
0.043008 -0.091592 0.120947 
0.043508 -0.091139 0.120937 
0.044008 -0.090799 0.120929 
0.044508 -0.090459 0.120923 
0.045008 -0.090119 0.120915 
0.045508 -0.089553 0.120901 
0.046007 -0.089100 0.120891 
0.046507 -0.088533 0.120878 
0.047007 -0.087854 0.120861 
0.047507 -0.087255 0.120840 
0.048007 -0.086537 0.120814 
0.048507 -0.085939 0.120792 
0.049007 -0.085699 0.120786 
0.049507 -0.079477 0.120540 
0.050007 -0.079237 0.120533 
0.050507 -0.078639 0.120511 
0.051007 -0.078160 0.120495 
0.051506 -0.076604 0.120435 
0.052006 -0.076484 0.120433 
0.052506 -0.076005 0.120417 
0.053006 -0.075287 0.120391 
0.053506 -0.073253 0.120312 
-0.018248 0.002390 0.116946 
-0.017748 0.001041 0.117018 
-0.017248 0.000772 0.117034 
-0.016748 -0.000711 0.117112 
-0.016248 -0.000711 0.117115 
-0.015748 -0.014735 0.117856 
-0.015248 -0.014989 0.117872 
-0.014748 -0.048739 0.119669 
-0.014248 -0.050533 0.119742 
-0.013748 -0.050892 0.119759 
-0.013248 -0.053525 0.119866 
-0.012748 -0.054721 0.119915 
-0.012248 -0.055678 0.119956 
-0.011748 -0.056516 0.119991 
-0.011248 -0.057353 0.120027 
-0.010748 -0.058789 0.120085 
-0.010248 -0.060704 0.120164 
-0.009747 -0.061182 0.120186 
-0.009247 -0.069917 0.120531 
-0.008747 -0.071712 0.120605 
-0.008247 -0.073866 0.120692 
-0.007746 -0.075541 0.120761 
-0.007246 -0.076857 0.120815 
-0.006746 -0.077455 0.120841 
-0.006246 -0.078293 0.120877 
-0.005746 -0.079011 0.120907 
-0.005246 -0.079609 0.120934 
-0.004746 -0.080446 0.120970 
-0.004246 -0.081643 0.121019 
-0.003746 -0.082959 0.121073 
-0.003246 -0.084155 0.121123 
-0.002746 -0.085113 0.121163 
-0.002246 -0.085711 0.121189 
-0.001746 -0.086309 0.121216 
-0.001246 -0.086787 0.121237 
-0.000746 -0.087146 0.121254 
-0.000246 -0.087505 0.121270 
0.000254 -0.087744 0.121283 
0.000754 -0.087977 0.121294 
0.001254 -0.088317 0.121306 
0.001754 -0.088543 0.121314 
0.002254 -0.088769 0.121324 
0.002754 -0.088996 0.121333 
0.003254 -0.089222 0.121342 
0.003755 -0.089448 0.121351 
0.004255 -0.089675 0.121360 
0.004755 -0.089901 0.121369 
0.005255 -0.090127 0.121378 
0.005755 -0.090354 0.121387 
0.006255 -0.090580 0.121396 
0.006755 -0.090806 0.121405 
0.007255 -0.091033 0.121414 
0.007755 -0.091372 0.121426 
0.008255 -0.091712 0.121439 
0.008755 -0.091938 0.121448 
0.009255 -0.092165 0.121456 
0.009755 -0.092278 0.121462 
0.010255 -0.092504 0.121472 
0.010755 -0.092730 0.121481 
0.011255 -0.092843 0.121487 
0.011755 -0.092957 0.121493 
0.012255 -0.093183 0.121502 
0.012755 -0.093296 0.121508 
0.013255 -0.093296 0.121510 
0.013755 -0.093409 0.121516 
0.014255 -0.093522 0.121522 
0.014755 -0.093635 0.121528 
0.015255 -0.093635 0.121531 
0.015755 -0.093748 0.121537 
0.016255 -0.093748 0.121539 
0.016755 -0.093861 0.121545 
0.017255 -0.093861 0.121547 
0.017755 -0.093861 0.121550 
0.018255 -0.093861 0.121553 
0.018755 -0.093974 0.121559 
0.019255 -0.093974 0.121561 
0.019755 -0.093860 0.121561 
0.020255 -0.093860 0.121563 
0.020755 -0.093973 0.121569 
0.021255 -0.093860 0.121569 
0.021755 -0.093860 0.121571 
0.022255 -0.093746 0.121572 
0.022755 -0.093746 0.121574 
0.023255 -0.093746 0.121577 
0.023755 -0.093633 0.121576 
0.024255 -0.093519 0.121575 
0.024755 -0.093293 0.121572 
0.025255 -0.093066 0.121568 
0.025755 -0.092953 0.121568 
0.026255 -0.092613 0.121560 
0.026755 -0.092386 0.121557 
0.027255 -0.092159 0.121553 
0.027755 -0.092046 0.121553 
0.028255 -0.092046 0.121556 
0.028754 -0.091933 0.121555 
0.029254 -0.091932 0.121558 
0.029754 -0.091932 0.121560 
0.030254 -0.092045 0.121567 
0.030754 -0.092158 0.121572 
0.031254 -0.092158 0.121574 
0.031754 -0.092271 0.121581 
0.032255 -0.092384 0.121587 
0.032755 -0.092498 0.121593 
0.033255 -0.092497 0.121596 
0.033755 -0.092611 0.121601 
0.034255 -0.092610 0.121603 
0.034755 -0.092610 0.121606 
0.035254 -0.092610 0.121609 
0.035755 -0.092723 0.121615 
0.036255 -0.092836 0.121621 
0.036754 -0.092836 0.121624 
0.037254 -0.092836 0.121626 
0.037754 -0.092836 0.121629 
0.038254 -0.092836 0.121632 
0.038754 -0.092836 0.121634 
0.039254 -0.092722 0.121634 
0.039754 -0.092722 0.121636 
0.040254 -0.092609 0.121636 
0.040754 -0.092495 0.121636 
0.041254 -0.092382 0.121635 
0.041754 -0.092155 0.121631 
0.042254 -0.091929 0.121628 
0.042754 -0.091702 0.121624 
0.043254 -0.091362 0.121617 
0.043754 -0.091022 0.121610 
0.044254 -0.090682 0.121603 
0.044754 -0.090343 0.121597 
0.045254 -0.089890 0.121586 
0.045754 -0.089436 0.121576 
0.046254 -0.088870 0.121564 
0.046754 -0.088190 0.121547 
0.047254 -0.087731 0.121535 
0.047754 -0.086893 0.121505 
0.048254 -0.086175 0.121479 
0.048753 -0.085696 0.121463 
0.049253 -0.085696 0.121466 
0.049753 -0.079474 0.121224 
0.050253 -0.078995 0.121208 
0.050753 -0.078516 0.121192 
0.051253 -0.077917 0.121171 
0.051753 -0.076721 0.121127 
0.052253 -0.076362 0.121115 
0.052753 -0.075883 0.121099 
0.053253 -0.073370 0.121003 
0.053753 -0.073370 0.121006 
-0.017502 0.001987 0.117705 
-0.017002 0.001178 0.117748 
-0.016502 0.000638 0.117778 
-0.016002 -0.000306 0.117829 
-0.015502 -0.009399 0.118299 
-0.014002 -0.049933 0.120423 
-0.013502 -0.050411 0.120444 
-0.013002 -0.051248 0.120479 
-0.012502 -0.053522 0.120570 
-0.012002 -0.054718 0.120618 
-0.011502 -0.055197 0.120640 
-0.011002 -0.056513 0.120693 
-0.010501 -0.057350 0.120728 
-0.010001 -0.060342 0.120847 
-0.009501 -0.068957 0.121182 
-0.009000 -0.071111 0.121268 
-0.008500 -0.072786 0.121335 
-0.008000 -0.075299 0.121435 
-0.007500 -0.076256 0.121475 
-0.007000 -0.077333 0.121520 
-0.006500 -0.077931 0.121545 
-0.006000 -0.078888 0.121585 
-0.005500 -0.079606 0.121615 
-0.005000 -0.080443 0.121650 
-0.004500 -0.081640 0.121700 
-0.004000 -0.082956 0.121753 
-0.003499 -0.084392 0.121811 
-0.002999 -0.085110 0.121842 
-0.002499 -0.085708 0.121867 
-0.001999 -0.086306 0.121893 
-0.001499 -0.086784 0.121915 
-0.000999 -0.087143 0.121931 
-0.000499 -0.087502 0.121947 
0.000001 -0.087741 0.121960 
0.000501 -0.087974 0.121969 
0.001001 -0.088200 0.121979 
0.001501 -0.088313 0.121984 
0.002001 -0.088540 0.121994 
0.002501 -0.088879 0.122006 
0.003001 -0.089106 0.122014 
0.003501 -0.089219 0.122020 
0.004001 -0.089445 0.122029 
0.004501 -0.089672 0.122038 
0.005001 -0.089898 0.122046 
0.005501 -0.090124 0.122056 
0.006001 -0.090351 0.122065 
0.006501 -0.090690 0.122077 
0.007001 -0.091030 0.122089 
0.007501 -0.091256 0.122097 
0.008001 -0.091596 0.122109 
0.008501 -0.091822 0.122118 
0.009001 -0.092162 0.122130 
0.009501 -0.092275 0.122136 
0.010001 -0.092501 0.122145 
0.010501 -0.092614 0.122151 
0.011001 -0.092841 0.122159 
0.011501 -0.092954 0.122165 
0.012001 -0.093067 0.122171 
0.012501 -0.093293 0.122179 
0.013001 -0.093293 0.122182 
0.013501 -0.093406 0.122188 
0.014001 -0.093519 0.122194 
0.014501 -0.093632 0.122199 
0.015001 -0.093632 0.122202 
0.015501 -0.093745 0.122208 
0.016001 -0.093858 0.122214 
0.016501 -0.093858 0.122217 
0.017001 -0.093971 0.122222 
0.017501 -0.093971 0.122225 
0.018001 -0.093971 0.122228 
0.018501 -0.094084 0.122234 
0.019001 -0.094084 0.122236 
0.019501 -0.094084 0.122239 
0.020001 -0.094084 0.122242 
0.020501 -0.094084 0.122245 
0.021001 -0.093970 0.122244 
0.021501 -0.093970 0.122246 
0.022001 -0.093970 0.122249 
0.022501 -0.093857 0.122249 
0.023001 -0.093856 0.122252 
0.023501 -0.093743 0.122251 
0.024001 -0.093630 0.122250 
0.024501 -0.093516 0.122251 
0.025001 -0.093403 0.122250 
0.025501 -0.093176 0.122247 
0.026001 -0.092950 0.122242 
0.026501 -0.092723 0.122239 
0.027001 -0.092496 0.122236 
0.027501 -0.092270 0.122233 
0.028001 -0.092156 0.122232 
0.028501 -0.092043 0.122231 
0.029001 -0.092043 0.122234 
0.029501 -0.092043 0.122237 
0.030001 -0.092043 0.122239 
0.030501 -0.092042 0.122242 
0.031001 -0.092156 0.122248 
0.031501 -0.092269 0.122254 
0.032001 -0.092382 0.122259 
0.032501 -0.092382 0.122262 
0.033001 -0.092381 0.122265 
0.033501 -0.092494 0.122271 
0.034001 -0.092494 0.122274 
0.034501 -0.092607 0.122280 
0.035001 -0.092607 0.122282 
0.035501 -0.092607 0.122285 
0.036001 -0.092720 0.122290 
0.036501 -0.092720 0.122293 
0.037001 -0.092720 0.122296 
0.037501 -0.092720 0.122298 
0.038001 -0.092833 0.122304 
0.038501 -0.092833 0.122307 
0.039001 -0.092719 0.122306 
0.039501 -0.092719 0.122309 
0.040001 -0.092719 0.122312 
0.040501 -0.092606 0.122312 
0.041001 -0.092492 0.122311 
0.041501 -0.092266 0.122308 
0.042001 -0.092152 0.122307 
0.042501 -0.091812 0.122300 
0.043001 -0.091586 0.122297 
0.043501 -0.091133 0.122287 
0.044000 -0.090793 0.122280 
0.044500 -0.090453 0.122274 
0.045000 -0.090113 0.122268 
0.045500 -0.089660 0.122258 
0.046000 -0.089094 0.122245 
0.046500 -0.088414 0.122229 
0.047000 -0.087848 0.122216 
0.047500 -0.087249 0.122196 
0.048000 -0.086531 0.122171 
0.048500 -0.085813 0.122145 
0.049000 -0.085454 0.122134 
0.049499 -0.079830 0.121920 
0.049999 -0.079351 0.121904 
0.050499 -0.078872 0.121888 
0.050999 -0.078273 0.121868 
0.051499 -0.077675 0.121847 
0.051999 -0.076837 0.121818 
0.052499 -0.076239 0.121797 
0.052999 -0.075760 0.121782 
0.053499 -0.073486 0.121696 
-0.015756 0.001044 0.118496 
-0.014756 -0.009779 0.119052 
-0.013256 -0.049810 0.121125 
-0.012756 -0.050648 0.121160 
-0.012256 -0.051724 0.121203 
-0.011756 -0.053998 0.121293 
-0.011255 -0.054357 0.121309 
-0.010755 -0.054955 0.121334 
-0.010255 -0.056271 0.121387 
-0.009754 -0.068955 0.121871 
-0.009254 -0.070390 0.121929 
-0.008754 -0.072065 0.121995 
-0.008254 -0.074099 0.122075 
-0.007754 -0.075655 0.122136 
-0.007254 -0.076732 0.122180 
-0.006754 -0.077689 0.122219 
-0.006254 -0.078765 0.122263 
-0.005754 -0.079364 0.122288 
-0.005253 -0.080201 0.122323 
-0.004753 -0.081398 0.122370 
-0.004253 -0.083073 0.122437 
-0.003753 -0.084149 0.122481 
-0.003253 -0.084867 0.122511 
-0.002753 -0.085705 0.122546 
-0.002253 -0.086183 0.122566 
-0.001753 -0.086662 0.122587 
-0.001253 -0.087021 0.122603 
-0.000753 -0.087379 0.122619 
-0.000253 -0.087619 0.122631 
0.000247 -0.087858 0.122644 
0.000747 -0.087971 0.122649 
0.001247 -0.088197 0.122657 
0.001747 -0.088424 0.122666 
0.002247 -0.088650 0.122674 
0.002747 -0.088876 0.122684 
0.003247 -0.089103 0.122693 
0.003747 -0.089216 0.122698 
0.004247 -0.089442 0.122706 
0.004747 -0.089668 0.122715 
0.005247 -0.089895 0.122724 
0.005747 -0.090234 0.122736 
0.006247 -0.090461 0.122744 
0.006747 -0.090914 0.122759 
0.007247 -0.091253 0.122771 
0.007748 -0.091593 0.122783 
0.008248 -0.091933 0.122794 
0.008748 -0.092046 0.122800 
0.009248 -0.092272 0.122809 
0.009748 -0.092498 0.122817 
0.010248 -0.092611 0.122824 
0.010748 -0.092725 0.122829 
0.011248 -0.092951 0.122837 
0.011748 -0.092951 0.122840 
0.012248 -0.093177 0.122849 
0.012748 -0.093290 0.122855 
0.013248 -0.093290 0.122857 
0.013748 -0.093403 0.122864 
0.014248 -0.093516 0.122869 
0.014748 -0.093629 0.122875 
0.015248 -0.093743 0.122880 
0.015748 -0.093856 0.122886 
0.016248 -0.093856 0.122889 
0.016748 -0.093969 0.122894 
0.017248 -0.093969 0.122897 
0.017748 -0.094082 0.122903 
0.018248 -0.094082 0.122905 
0.018748 -0.094081 0.122908 
0.019248 -0.094195 0.122913 
0.019748 -0.094194 0.122916 
0.020248 -0.094194 0.122919 
0.020748 -0.094081 0.122919 
0.021248 -0.094081 0.122922 
0.021748 -0.094081 0.122924 
0.022248 -0.093967 0.122923 
0.022748 -0.093967 0.122926 
0.023248 -0.093967 0.122929 
0.023748 -0.093740 0.122926 
0.024248 -0.093627 0.122926 
0.024748 -0.093513 0.122925 
0.025248 -0.093400 0.122925 
0.025747 -0.093173 0.122921 
0.026247 -0.092947 0.122918 
0.026747 -0.092720 0.122915 
0.027247 -0.092493 0.122911 
0.027747 -0.092380 0.122912 
0.028247 -0.092153 0.122907 
0.028747 -0.092153 0.122910 
0.029247 -0.092040 0.122910 
0.029747 -0.092040 0.122913 
0.030247 -0.092153 0.122918 
0.030747 -0.092153 0.122921 
0.031247 -0.092153 0.122923 
0.031747 -0.092266 0.122930 
0.032247 -0.092379 0.122936 
0.032747 -0.092379 0.122938 
0.033247 -0.092378 0.122941 
0.033747 -0.092492 0.122946 
0.034247 -0.092491 0.122949 
0.034747 -0.092604 0.122955 
0.035247 -0.092604 0.122958 
0.035747 -0.092604 0.122960 
0.036247 -0.092604 0.122963 
0.036747 -0.092604 0.122966 
0.037247 -0.092604 0.122968 
0.037747 -0.092717 0.122974 
0.038247 -0.092717 0.122976 
0.038747 -0.092717 0.122979 
0.039247 -0.092716 0.122982 
0.039747 -0.092716 0.122984 
0.040247 -0.092603 0.122985 
0.040747 -0.092490 0.122984 
0.041247 -0.092263 0.122981 
0.041747 -0.092150 0.122980 
0.042247 -0.092036 0.122980 
0.042747 -0.091583 0.122971 
0.043247 -0.091356 0.122968 
0.043747 -0.090903 0.122957 
0.044247 -0.090676 0.122954 
0.044747 -0.090110 0.122943 
0.045247 -0.089770 0.122936 
0.045747 -0.089317 0.122927 
0.046247 -0.088751 0.122914 
0.046746 -0.088071 0.122899 
0.047246 -0.087485 0.122881 
0.047746 -0.086887 0.122862 
0.048246 -0.086169 0.122837 
0.048746 -0.085211 0.122803 
0.049246 -0.080305 0.122620 
0.049746 -0.079707 0.122600 
0.050246 -0.079108 0.122579 
0.050746 -0.078630 0.122564 
0.051246 -0.078031 0.122544 
0.051745 -0.077313 0.122519 
0.052245 -0.076595 0.122495 
0.052745 -0.075997 0.122475 
0.053245 -0.073484 0.122382 
0.053745 -0.073603 0.122389 
-0.013010 -0.048970 0.121798 
-0.012510 -0.050166 0.121845 
-0.012009 -0.051123 0.121884 
-0.011509 -0.051602 0.121904 
-0.011009 -0.053038 0.121961 
-0.010509 -0.053995 0.121999 
-0.010009 -0.055191 0.122046 
-0.009508 -0.069550 0.122585 
-0.009008 -0.071105 0.122646 
-0.008508 -0.073139 0.122725 
-0.008008 -0.075054 0.122798 
-0.007507 -0.076130 0.122841 
-0.007007 -0.077327 0.122889 
-0.006507 -0.078284 0.122927 
-0.006007 -0.078882 0.122953 
-0.005507 -0.079839 0.122991 
-0.005007 -0.081036 0.123038 
-0.004507 -0.082352 0.123090 
-0.004007 -0.083907 0.123151 
-0.003507 -0.084745 0.123185 
-0.003007 -0.085462 0.123214 
-0.002507 -0.086060 0.123239 
-0.002007 -0.086419 0.123256 
-0.001507 -0.086898 0.123276 
-0.001007 -0.087137 0.123288 
-0.000507 -0.087376 0.123299 
-0.000007 -0.087735 0.123315 
0.000493 -0.087854 0.123322 
0.000993 -0.088081 0.123330 
0.001493 -0.088307 0.123339 
0.001993 -0.088420 0.123345 
0.002494 -0.088647 0.123354 
0.002994 -0.088873 0.123362 
0.003494 -0.088986 0.123368 
0.003994 -0.089326 0.123379 
0.004494 -0.089439 0.123385 
0.004994 -0.089779 0.123396 
0.005494 -0.090005 0.123404 
0.005994 -0.090345 0.123417 
0.006494 -0.090684 0.123428 
0.006994 -0.091250 0.123445 
0.007494 -0.091590 0.123457 
0.007994 -0.091816 0.123465 
0.008494 -0.092043 0.123474 
0.008994 -0.092269 0.123481 
0.009494 -0.092382 0.123488 
0.009994 -0.092609 0.123496 
0.010494 -0.092722 0.123501 
0.010994 -0.092835 0.123507 
0.011494 -0.092948 0.123513 
0.011994 -0.093061 0.123519 
0.012494 -0.093174 0.123524 
0.012994 -0.093287 0.123530 
0.013494 -0.093401 0.123535 
0.013994 -0.093514 0.123541 
0.014494 -0.093514 0.123544 
0.014994 -0.093627 0.123549 
0.015494 -0.093740 0.123554 
0.015994 -0.093853 0.123560 
0.016494 -0.093853 0.123563 
0.016994 -0.093966 0.123568 
0.017494 -0.094079 0.123574 
0.017994 -0.094079 0.123577 
0.018494 -0.094192 0.123582 
0.018994 -0.094192 0.123585 
0.019494 -0.094192 0.123588 
0.019994 -0.094191 0.123590 
0.020494 -0.094078 0.123591 
0.020994 -0.094078 0.123593 
0.021494 -0.094078 0.123596 
0.021994 -0.094078 0.123599 
0.022494 -0.094077 0.123601 
0.022994 -0.093964 0.123600 
0.023494 -0.093851 0.123601 
0.023994 -0.093737 0.123600 
0.024494 -0.093624 0.123600 
0.024994 -0.093397 0.123597 
0.025494 -0.093284 0.123597 
0.025994 -0.093057 0.123594 
0.026494 -0.092944 0.123593 
0.026994 -0.092717 0.123590 
0.027494 -0.092604 0.123590 
0.027994 -0.092377 0.123587 
0.028494 -0.092264 0.123586 
0.028994 -0.092150 0.123586 
0.029494 -0.092037 0.123587 
0.029994 -0.092150 0.123592 
0.030494 -0.092150 0.123594 
0.030994 -0.092150 0.123597 
0.031494 -0.092150 0.123600 
0.031994 -0.092149 0.123602 
0.032494 -0.092263 0.123608 
0.032994 -0.092262 0.123610 
0.033494 -0.092375 0.123616 
0.033994 -0.092375 0.123619 
0.034494 -0.092375 0.123622 
0.034994 -0.092488 0.123627 
0.035494 -0.092488 0.123630 
0.035994 -0.092375 0.123630 
0.036494 -0.092488 0.123635 
0.036994 -0.092488 0.123638 
0.037494 -0.092488 0.123640 
0.037994 -0.092601 0.123646 
0.038494 -0.092714 0.123652 
0.038994 -0.092600 0.123652 
0.039494 -0.092600 0.123655 
0.039994 -0.092487 0.123654 
0.040494 -0.092373 0.123654 
0.040994 -0.092260 0.123653 
0.041493 -0.092147 0.123653 
0.041993 -0.091920 0.123650 
0.042493 -0.091693 0.123647 
0.042993 -0.091467 0.123644 
0.043493 -0.091127 0.123638 
0.043993 -0.090674 0.123629 
0.044493 -0.090334 0.123623 
0.044993 -0.089880 0.123614 
0.045493 -0.089541 0.123607 
0.045993 -0.088974 0.123596 
0.046493 -0.088294 0.123581 
0.046993 -0.087841 0.123571 
0.047493 -0.087003 0.123544 
0.047993 -0.086525 0.123528 
0.048492 -0.084610 0.123459 
0.048992 -0.082695 0.123390 
0.049492 -0.081858 0.123362 
0.049992 -0.079704 0.123285 
0.050492 -0.078986 0.123260 
0.050992 -0.078148 0.123232 
0.051492 -0.077669 0.123216 
0.051992 -0.076951 0.123192 
0.052492 -0.076113 0.123163 
0.052992 -0.075635 0.123148 
0.053491 -0.073720 0.123080 
-0.013764 -0.007491 0.120396 
-0.012263 -0.049685 0.122531 
-0.011763 -0.050403 0.122560 
-0.011263 -0.051241 0.122594 
-0.010763 -0.052317 0.122636 
-0.010263 -0.052676 0.122652 
-0.009762 -0.068590 0.123239 
-0.009262 -0.070145 0.123298 
-0.008761 -0.072179 0.123376 
-0.008261 -0.074094 0.123448 
-0.007761 -0.075649 0.123508 
-0.007261 -0.076965 0.123559 
-0.006761 -0.077683 0.123588 
-0.006261 -0.078640 0.123626 
-0.005761 -0.079358 0.123655 
-0.005261 -0.080434 0.123697 
-0.004761 -0.081990 0.123757 
-0.004261 -0.083306 0.123808 
-0.003760 -0.084383 0.123850 
-0.003260 -0.085100 0.123879 
-0.002760 -0.085698 0.123904 
-0.002260 -0.086177 0.123924 
-0.001760 -0.086536 0.123939 
-0.001260 -0.087014 0.123960 
-0.000760 -0.087253 0.123972 
-0.000260 -0.087493 0.123982 
