ply
format ascii 1.0
comment created by MATLAB ply_write
element vertex 1683
property float x
property float y
property float z
end_header
-0.025991 0.023136 0.077407 
-0.026489 0.022372 0.077345 
-0.026981 0.019827 0.077140 
-0.027479 0.019063 0.077079 
-0.027976 0.018044 0.076997 
-0.028471 0.016390 0.076864 
-0.028970 0.016007 0.076834 
-0.029469 0.015878 0.076824 
-0.029966 0.014732 0.076732 
-0.030460 0.012569 0.076558 
-0.030955 0.010915 0.076424 
-0.031455 0.010913 0.076425 
-0.031955 0.010912 0.076426 
-0.032450 0.009384 0.076303 
-0.032950 0.009383 0.076303 
-0.033449 0.009127 0.076283 
-0.033946 0.008108 0.076202 
-0.034436 0.004740 0.075932 
-0.034933 0.003526 0.075838 
-0.035419 -0.000922 0.075489 
-0.035919 -0.001058 0.075479 
-0.036411 -0.003620 0.075278 
-0.036897 -0.008472 0.074898 
-0.037397 -0.008473 0.074899 
-0.037891 -0.010226 0.074762 
-0.038383 -0.013057 0.074540 
-0.038876 -0.015215 0.074371 
0.058830 -0.000093 0.076125 
0.058326 0.000984 0.076209 
0.057825 0.001386 0.076241 
0.057324 0.001654 0.076263 
0.056806 0.007879 0.076753 
0.056302 0.009022 0.076846 
0.055799 0.010037 0.076929 
0.055298 0.010417 0.076960 
0.054786 0.014358 0.077279 
0.054285 0.014865 0.077321 
0.053779 0.016771 0.077475 
0.053276 0.017786 0.077558 
0.052773 0.018675 0.077630 
0.052271 0.019309 0.077682 
0.051771 0.019562 0.077703 
0.051268 0.020578 0.077786 
0.050766 0.021212 0.077838 
0.050263 0.021973 0.077900 
0.049760 0.022989 0.077983 
0.049257 0.024005 0.078066 
0.048756 0.024639 0.078118 
0.048254 0.025273 0.078170 
0.047752 0.025780 0.078211 
0.047251 0.026033 0.078233 
0.046750 0.026540 0.078274 
0.046248 0.027047 0.078316 
0.045746 0.027682 0.078368 
0.045244 0.028443 0.078430 
0.044743 0.028950 0.078472 
0.044240 0.029966 0.078555 
0.043738 0.030600 0.078607 
0.043235 0.031616 0.078689 
0.042733 0.032250 0.078741 
0.042231 0.032757 0.078783 
0.041730 0.033264 0.078825 
0.041228 0.033771 0.078866 
0.040727 0.034278 0.078908 
0.040225 0.034785 0.078950 
0.039724 0.035165 0.078981 
0.039223 0.035545 0.079013 
0.038722 0.035798 0.079034 
0.038221 0.036305 0.079076 
0.037719 0.036685 0.079107 
0.037219 0.036938 0.079128 
0.036717 0.037445 0.079170 
0.036216 0.037952 0.079212 
0.035714 0.038332 0.079243 
0.035213 0.038839 0.079285 
0.034712 0.039092 0.079306 
0.034211 0.039472 0.079337 
0.033710 0.039725 0.079359 
0.033209 0.040104 0.079390 
0.032708 0.040484 0.079421 
0.032207 0.040737 0.079443 
0.031706 0.040990 0.079464 
0.031206 0.041243 0.079485 
0.030705 0.041495 0.079506 
0.030204 0.041748 0.079527 
0.029704 0.041874 0.079538 
0.029203 0.042254 0.079570 
0.028702 0.042379 0.079581 
0.028201 0.042759 0.079612 
0.027700 0.043139 0.079643 
0.027199 0.043392 0.079665 
0.026699 0.043645 0.079686 
0.026198 0.043898 0.079707 
0.025697 0.044023 0.079718 
0.025197 0.044276 0.079739 
0.024696 0.044529 0.079760 
0.024195 0.044781 0.079781 
0.023694 0.045034 0.079803 
0.023194 0.045160 0.079814 
0.022694 0.045285 0.079825 
0.022193 0.045411 0.079835 
0.021693 0.045537 0.079846 
0.021192 0.045789 0.079868 
0.020692 0.045788 0.079868 
0.020192 0.045914 0.079879 
0.019692 0.045912 0.079880 
0.019192 0.045910 0.079880 
0.018691 0.046036 0.079891 
0.018191 0.046034 0.079892 
0.017691 0.046033 0.079893 
0.017191 0.046159 0.079904 
0.016691 0.046157 0.079904 
0.016191 0.046155 0.079905 
0.015691 0.046154 0.079906 
0.015191 0.046280 0.079917 
0.014691 0.046278 0.079917 
0.014191 0.046276 0.079918 
0.013691 0.046275 0.079919 
0.013191 0.046273 0.079919 
0.012691 0.046272 0.079920 
0.012190 0.046397 0.079931 
0.011690 0.046396 0.079931 
0.011190 0.046394 0.079932 
0.010690 0.046393 0.079933 
0.010190 0.046391 0.079933 
0.009690 0.046390 0.079934 
0.009191 0.046261 0.079924 
0.008691 0.046259 0.079925 
0.008191 0.046258 0.079926 
0.007691 0.046256 0.079926 
0.007191 0.046255 0.079927 
0.006691 0.046253 0.079928 
0.006191 0.046124 0.079918 
0.005691 0.046123 0.079919 
0.005191 0.046121 0.079920 
0.004691 0.045993 0.079910 
0.004192 0.045864 0.079900 
0.003692 0.045862 0.079901 
0.003192 0.045734 0.079891 
0.002693 0.045605 0.079882 
0.002193 0.045476 0.079872 
0.001693 0.045347 0.079863 
0.001194 0.045219 0.079853 
0.000694 0.045090 0.079843 
0.000194 0.044961 0.079834 
-0.000305 0.044833 0.079824 
-0.000805 0.044704 0.079815 
-0.001304 0.044448 0.079795 
-0.001803 0.044192 0.079775 
-0.002302 0.043936 0.079755 
-0.002802 0.043680 0.079735 
-0.003301 0.043425 0.079715 
-0.003801 0.043296 0.079706 
-0.004300 0.043040 0.079686 
-0.004799 0.042657 0.079656 
-0.005298 0.042528 0.079646 
-0.005797 0.042272 0.079626 
-0.006296 0.041889 0.079596 
-0.006796 0.041633 0.079576 
-0.007295 0.041378 0.079557 
-0.007793 0.040867 0.079516 
-0.008292 0.040484 0.079486 
-0.008791 0.040229 0.079466 
-0.009291 0.040100 0.079457 
-0.009790 0.039717 0.079427 
-0.010289 0.039461 0.079407 
-0.010788 0.039205 0.079387 
-0.011288 0.038949 0.079367 
-0.011786 0.038566 0.079337 
-0.012286 0.038310 0.079317 
-0.012784 0.037800 0.079277 
-0.013283 0.037417 0.079246 
-0.013782 0.037034 0.079216 
-0.014280 0.036524 0.079176 
-0.014779 0.036014 0.079136 
-0.015278 0.035631 0.079106 
-0.015776 0.035248 0.079075 
-0.016275 0.034737 0.079035 
-0.016773 0.034227 0.078995 
-0.017272 0.033844 0.078965 
-0.017772 0.033588 0.078945 
-0.018270 0.033078 0.078904 
-0.018769 0.032695 0.078874 
-0.019267 0.032185 0.078834 
-0.019765 0.031420 0.078773 
-0.020263 0.030783 0.078722 
-0.020761 0.030019 0.078661 
-0.021259 0.029254 0.078601 
-0.021757 0.028617 0.078550 
-0.022255 0.027979 0.078499 
-0.022753 0.027342 0.078449 
-0.023251 0.026832 0.078408 
-0.023750 0.026322 0.078368 
-0.024249 0.025939 0.078338 
-0.024746 0.025174 0.078277 
-0.025240 0.023138 0.078113 
-0.025740 0.023009 0.078104 
-0.026238 0.022372 0.078053 
-0.026731 0.019954 0.077859 
-0.027230 0.019571 0.077829 
-0.027727 0.018552 0.077747 
-0.028225 0.018042 0.077707 
-0.028719 0.016006 0.077544 
-0.029219 0.016005 0.077544 
-0.029718 0.015749 0.077524 
-0.030215 0.014603 0.077433 
-0.030710 0.012948 0.077300 
-0.031204 0.010912 0.077137 
-0.031703 0.010783 0.077127 
-0.032204 0.010909 0.077138 
-0.032698 0.009127 0.076995 
-0.033199 0.009253 0.077006 
-0.033697 0.008615 0.076955 
-0.034195 0.007851 0.076894 
-0.034682 0.003659 0.076563 
-0.035181 0.003253 0.076532 
-0.035665 -0.002002 0.076125 
-0.036160 -0.003621 0.075999 
-0.036659 -0.003892 0.075979 
-0.037155 -0.005375 0.075865 
-0.037644 -0.009149 0.075572 
-0.038140 -0.010498 0.075468 
-0.038632 -0.013059 0.075270 
0.059084 -0.001306 0.076750 
0.058578 0.000713 0.076906 
0.058076 0.001385 0.076958 
0.057576 0.001518 0.076970 
0.057074 0.002056 0.077012 
0.056556 0.008257 0.077497 
0.056052 0.009400 0.077590 
0.055549 0.010289 0.077662 
0.055038 0.013975 0.077959 
0.054536 0.014610 0.078011 
0.054033 0.015753 0.078103 
0.053528 0.017404 0.078237 
0.053025 0.018420 0.078319 
0.052523 0.019054 0.078371 
0.052022 0.019434 0.078402 
0.051520 0.020069 0.078454 
0.051017 0.020957 0.078526 
0.050515 0.021719 0.078588 
0.050013 0.022353 0.078640 
0.049509 0.023751 0.078753 
0.049007 0.024512 0.078815 
0.048505 0.025146 0.078867 
0.048003 0.025654 0.078908 
0.047502 0.026033 0.078939 
0.047002 0.026286 0.078960 
0.046500 0.026921 0.079012 
0.045998 0.027301 0.079044 
0.045496 0.028189 0.079116 
0.044994 0.028696 0.079157 
0.044492 0.029331 0.079209 
0.043989 0.030346 0.079291 
0.043487 0.031108 0.079353 
0.042985 0.031869 0.079415 
0.042483 0.032504 0.079467 
0.041981 0.033138 0.079519 
0.041479 0.033645 0.079560 
0.040978 0.034152 0.079602 
0.040477 0.034532 0.079633 
0.039976 0.034912 0.079665 
0.039475 0.035292 0.079696 
0.038973 0.035672 0.079727 
0.038473 0.035925 0.079748 
0.037971 0.036305 0.079780 
0.037470 0.036685 0.079811 
0.036969 0.037192 0.079852 
0.036467 0.037699 0.079894 
0.035965 0.038333 0.079946 
0.035464 0.038713 0.079977 
0.034963 0.038966 0.079998 
0.034462 0.039346 0.080029 
0.033962 0.039599 0.080051 
0.033460 0.039979 0.080082 
0.032959 0.040359 0.080113 
0.032459 0.040612 0.080134 
0.031958 0.040864 0.080155 
0.031457 0.041244 0.080187 
0.030956 0.041370 0.080198 
0.030456 0.041623 0.080219 
0.029955 0.041876 0.080240 
0.029454 0.042128 0.080261 
0.028953 0.042381 0.080282 
0.028452 0.042634 0.080303 
0.027951 0.043014 0.080334 
0.027451 0.043267 0.080356 
0.026950 0.043520 0.080377 
0.026449 0.043772 0.080398 
0.025948 0.044025 0.080419 
0.025448 0.044151 0.080430 
0.024947 0.044404 0.080451 
0.024446 0.044656 0.080472 
0.023946 0.044909 0.080493 
0.023445 0.045035 0.080504 
0.022945 0.045160 0.080515 
0.022445 0.045286 0.080526 
0.021944 0.045539 0.080547 
0.021443 0.045664 0.080558 
0.020943 0.045663 0.080558 
0.020443 0.045789 0.080569 
0.019943 0.045787 0.080570 
0.019443 0.045913 0.080581 
0.018943 0.045911 0.080581 
0.018443 0.045910 0.080582 
0.017942 0.046035 0.080593 
0.017442 0.046034 0.080594 
0.016942 0.046032 0.080594 
0.016442 0.046158 0.080605 
0.015942 0.046156 0.080606 
0.015442 0.046155 0.080606 
0.014942 0.046153 0.080607 
0.014442 0.046151 0.080608 
0.013942 0.046150 0.080608 
0.013442 0.046276 0.080619 
0.012942 0.046274 0.080620 
0.012442 0.046272 0.080621 
0.011941 0.046398 0.080631 
0.011441 0.046396 0.080632 
0.010941 0.046395 0.080633 
0.010441 0.046393 0.080633 
0.009942 0.046265 0.080624 
0.009441 0.046390 0.080635 
0.008942 0.046262 0.080625 
0.008442 0.046260 0.080626 
0.007942 0.046258 0.080627 
0.007442 0.046257 0.080627 
0.006942 0.046255 0.080628 
0.006442 0.046127 0.080618 
0.005942 0.046125 0.080619 
0.005442 0.046124 0.080620 
0.004942 0.045995 0.080610 
0.004443 0.045866 0.080601 
0.003943 0.045865 0.080601 
0.003443 0.045736 0.080592 
0.002943 0.045607 0.080582 
0.002444 0.045478 0.080573 
0.001944 0.045477 0.080573 
0.001444 0.045348 0.080564 
0.000945 0.045092 0.080544 
0.000445 0.044964 0.080534 
-0.000054 0.044835 0.080525 
-0.000554 0.044706 0.080515 
-0.001053 0.044450 0.080495 
-0.001552 0.044194 0.080476 
-0.002052 0.043938 0.080456 
-0.002551 0.043810 0.080446 
-0.003050 0.043427 0.080416 
-0.003550 0.043298 0.080407 
-0.004049 0.043042 0.080387 
-0.004548 0.042786 0.080367 
-0.005048 0.042657 0.080358 
-0.005547 0.042401 0.080338 
-0.006046 0.042146 0.080318 
-0.006545 0.041890 0.080298 
-0.007044 0.041507 0.080268 
-0.007544 0.041251 0.080249 
-0.008042 0.040868 0.080219 
-0.008542 0.040612 0.080199 
-0.009041 0.040356 0.080179 
-0.009540 0.040100 0.080159 
-0.010040 0.039971 0.080150 
-0.010539 0.039715 0.080130 
-0.011038 0.039332 0.080100 
-0.011537 0.039076 0.080080 
-0.012036 0.038820 0.080060 
-0.012535 0.038565 0.080041 
-0.013034 0.038054 0.080001 
-0.013533 0.037671 0.079971 
-0.014032 0.037415 0.079951 
-0.014531 0.036905 0.079911 
-0.015029 0.036268 0.079860 
-0.015527 0.035885 0.079830 
-0.016026 0.035502 0.079800 
-0.016525 0.034991 0.079760 
-0.017023 0.034354 0.079710 
-0.017521 0.033844 0.079669 
-0.018020 0.033461 0.079639 
-0.018519 0.033078 0.079609 
-0.019017 0.032440 0.079559 
-0.019515 0.031676 0.079498 
-0.020013 0.031038 0.079448 
-0.020510 0.030146 0.079377 
-0.021008 0.029255 0.079306 
-0.021506 0.028744 0.079266 
-0.022004 0.028107 0.079216 
-0.022503 0.027597 0.079175 
-0.023001 0.027087 0.079135 
-0.023499 0.026449 0.079085 
-0.023998 0.026066 0.079055 
-0.024496 0.025429 0.079004 
-0.024994 0.024664 0.078944 
-0.025489 0.023009 0.078812 
-0.025988 0.022626 0.078782 
-0.026486 0.021862 0.078721 
-0.026980 0.019952 0.078568 
-0.027477 0.018934 0.078487 
-0.027975 0.018296 0.078437 
-0.028473 0.017786 0.078397 
-0.028968 0.016004 0.078254 
-0.029467 0.015748 0.078234 
-0.029966 0.015238 0.078194 
-0.030462 0.014092 0.078103 
-0.030959 0.013073 0.078022 
-0.031452 0.010655 0.077828 
-0.031952 0.010781 0.077839 
-0.032447 0.009126 0.077707 
-0.032947 0.009124 0.077708 
-0.033446 0.008741 0.077678 
-0.033944 0.007849 0.077607 
-0.034442 0.007466 0.077577 
-0.034929 0.002848 0.077217 
-0.035419 -0.000252 0.076979 
-0.035912 -0.002813 0.076783 
-0.036410 -0.003354 0.076742 
-0.036907 -0.004433 0.076660 
-0.037404 -0.005243 0.076598 
-0.037888 -0.010767 0.076174 
-0.038380 -0.013329 0.075978 
-0.038873 -0.015755 0.075792 
0.058834 -0.000770 0.077511 
0.058329 0.000845 0.077635 
0.057827 0.001382 0.077676 
0.057325 0.001920 0.077718 
0.056824 0.002457 0.077760 
0.056306 0.008382 0.078220 
0.055802 0.009779 0.078333 
0.055300 0.010541 0.078395 
0.054789 0.014100 0.078680 
0.054286 0.015243 0.078773 
0.053782 0.016259 0.078855 
0.053278 0.017911 0.078988 
0.052775 0.018673 0.079049 
0.052273 0.019307 0.079101 
0.051772 0.019687 0.079132 
0.051270 0.020576 0.079204 
0.050767 0.021337 0.079266 
0.050265 0.021972 0.079317 
0.049761 0.023369 0.079430 
0.049259 0.024258 0.079502 
0.048757 0.024765 0.079543 
0.048255 0.025399 0.079595 
0.047754 0.025779 0.079626 
0.047253 0.026159 0.079657 
0.046752 0.026539 0.079688 
0.046250 0.027174 0.079740 
0.045749 0.027554 0.079771 
0.045246 0.028315 0.079833 
0.044744 0.028950 0.079884 
0.044242 0.029711 0.079946 
0.043740 0.030600 0.080018 
0.043237 0.031489 0.080090 
0.042735 0.032250 0.080151 
0.042233 0.032885 0.080203 
0.041731 0.033392 0.080244 
0.041230 0.033899 0.080286 
0.040728 0.034279 0.080317 
0.040227 0.034786 0.080358 
0.039726 0.035039 0.080379 
0.039225 0.035419 0.080410 
0.038724 0.035672 0.080431 
0.038223 0.036052 0.080463 
0.037722 0.036432 0.080494 
0.037221 0.036812 0.080525 
0.036719 0.037446 0.080577 
0.036217 0.038081 0.080628 
0.035716 0.038461 0.080659 
0.035215 0.038841 0.080690 
0.034714 0.039221 0.080722 
0.034213 0.039473 0.080743 
0.033712 0.039853 0.080774 
0.033211 0.040233 0.080805 
0.032710 0.040486 0.080826 
0.032209 0.040866 0.080857 
0.031708 0.041119 0.080878 
0.031208 0.041245 0.080889 
0.030707 0.041497 0.080910 
0.030206 0.041750 0.080931 
0.029705 0.042003 0.080952 
0.029205 0.042256 0.080973 
0.028703 0.042636 0.081004 
0.028203 0.042889 0.081025 
0.027702 0.043142 0.081046 
0.027201 0.043522 0.081078 
0.026700 0.043647 0.081088 
0.026199 0.044027 0.081120 
0.025699 0.044153 0.081130 
0.025198 0.044279 0.081141 
0.024698 0.044531 0.081162 
0.024197 0.044657 0.081173 
0.023697 0.044910 0.081194 
0.023196 0.045035 0.081205 
0.022696 0.045161 0.081216 
0.022195 0.045287 0.081227 
0.021695 0.045539 0.081248 
0.021195 0.045538 0.081248 
0.020694 0.045664 0.081259 
0.020194 0.045789 0.081270 
0.019694 0.045788 0.081271 
0.019194 0.045786 0.081271 
0.018694 0.045912 0.081282 
0.018194 0.045910 0.081283 
0.017693 0.046036 0.081294 
0.017194 0.045907 0.081284 
0.016693 0.046033 0.081295 
0.016193 0.046031 0.081296 
0.015693 0.046030 0.081296 
0.015193 0.046028 0.081297 
0.014693 0.046154 0.081308 
0.014193 0.046152 0.081308 
0.013693 0.046151 0.081309 
0.013193 0.046149 0.081310 
0.012692 0.046275 0.081321 
0.012192 0.046273 0.081321 
0.011692 0.046272 0.081322 
0.011192 0.046270 0.081323 
0.010692 0.046396 0.081334 
0.010192 0.046267 0.081324 
0.009692 0.046265 0.081325 
0.009192 0.046391 0.081336 
0.008692 0.046262 0.081326 
0.008192 0.046261 0.081327 
0.007692 0.046259 0.081327 
0.007192 0.046258 0.081328 
0.006692 0.046256 0.081329 
0.006193 0.046127 0.081319 
0.005693 0.046126 0.081320 
0.005193 0.045997 0.081310 
0.004694 0.045868 0.081301 
0.004194 0.045867 0.081301 
0.003694 0.045738 0.081292 
0.003194 0.045609 0.081282 
0.002695 0.045481 0.081273 
0.002195 0.045352 0.081263 
0.001695 0.045350 0.081264 
0.001196 0.045094 0.081244 
0.000696 0.044966 0.081235 
0.000197 0.044837 0.081225 
-0.000303 0.044581 0.081206 
-0.000802 0.044452 0.081196 
-0.001301 0.044196 0.081176 
-0.001801 0.043940 0.081157 
-0.002300 0.043812 0.081147 
-0.002799 0.043556 0.081128 
-0.003299 0.043300 0.081108 
-0.003798 0.043171 0.081098 
-0.004298 0.043042 0.081089 
-0.004797 0.042786 0.081069 
-0.005296 0.042531 0.081050 
-0.005796 0.042402 0.081040 
-0.006295 0.042019 0.081010 
-0.006794 0.041763 0.080990 
-0.007293 0.041507 0.080971 
-0.007793 0.041251 0.080951 
-0.008292 0.040995 0.080931 
-0.008791 0.040739 0.080912 
-0.009291 0.040610 0.080902 
-0.009790 0.040227 0.080872 
-0.010289 0.039971 0.080853 
-0.010788 0.039843 0.080843 
-0.011287 0.039459 0.080813 
-0.011787 0.039331 0.080804 
-0.012286 0.038948 0.080774 
-0.012785 0.038692 0.080754 
-0.013284 0.038309 0.080724 
-0.013783 0.038053 0.080705 
-0.014282 0.037670 0.080675 
-0.014780 0.037159 0.080635 
-0.015278 0.036522 0.080585 
-0.015777 0.036012 0.080544 
-0.016276 0.035756 0.080525 
-0.016775 0.035245 0.080485 
-0.017273 0.034608 0.080435 
-0.017771 0.033970 0.080384 
-0.018270 0.033587 0.080354 
-0.018767 0.032823 0.080294 
-0.019265 0.032058 0.080234 
-0.019762 0.031166 0.080163 
-0.020260 0.030402 0.080103 
-0.020757 0.029255 0.080012 
-0.021255 0.028745 0.079972 
-0.021754 0.028235 0.079932 
-0.022252 0.027724 0.079892 
-0.022751 0.027214 0.079852 
-0.023249 0.026704 0.079812 
-0.023748 0.026194 0.079772 
-0.024246 0.025556 0.079721 
-0.024744 0.024919 0.079671 
-0.025238 0.022882 0.079509 
-0.025737 0.022626 0.079489 
-0.026235 0.021989 0.079439 
-0.026732 0.020843 0.079348 
-0.027228 0.019569 0.079247 
-0.027725 0.018550 0.079166 
-0.028223 0.018040 0.079126 
-0.028722 0.017657 0.079096 
-0.029217 0.015875 0.078955 
-0.029716 0.015492 0.078925 
-0.030212 0.014473 0.078844 
-0.030709 0.013326 0.078753 
-0.031208 0.012943 0.078723 
-0.031701 0.010652 0.078541 
-0.032201 0.010651 0.078541 
-0.032696 0.008869 0.078400 
-0.033196 0.008867 0.078400 
-0.033695 0.008484 0.078370 
-0.034192 0.007592 0.078300 
-0.034677 0.002712 0.077922 
-0.035175 0.001902 0.077861 
-0.035668 -0.000255 0.077698 
-0.036161 -0.002816 0.077504 
-0.036658 -0.003625 0.077443 
-0.037155 -0.004839 0.077351 
-0.037653 -0.005380 0.077311 
-0.038128 -0.013868 0.076666 
-0.038604 -0.021547 0.076082 
0.058583 -0.000368 0.078261 
0.058079 0.001112 0.078373 
0.057578 0.001514 0.078404 
0.057075 0.002456 0.078476 
0.056574 0.002858 0.078507 
0.056056 0.008887 0.078974 
0.055552 0.009903 0.079056 
0.055051 0.010538 0.079107 
0.054539 0.014352 0.079412 
0.054036 0.015241 0.079483 
0.053532 0.016893 0.079616 
0.053028 0.018163 0.079718 
0.052525 0.018925 0.079779 
0.052024 0.019432 0.079821 
0.051523 0.019812 0.079852 
0.051019 0.020956 0.079943 
0.050517 0.021590 0.079995 
0.050014 0.022860 0.080097 
0.049510 0.024004 0.080189 
0.049009 0.024511 0.080230 
0.048507 0.025018 0.080271 
0.048006 0.025525 0.080312 
0.047504 0.026033 0.080354 
0.047003 0.026413 0.080385 
0.046502 0.026793 0.080416 
0.046000 0.027300 0.080457 
0.045499 0.027807 0.080498 
0.044997 0.028569 0.080560 
0.044495 0.029203 0.080611 
0.043992 0.029965 0.080672 
0.043489 0.030981 0.080754 
0.042987 0.031742 0.080815 
0.042485 0.032377 0.080867 
0.041983 0.033139 0.080928 
0.041481 0.033646 0.080970 
0.040980 0.034153 0.081011 
0.040479 0.034533 0.081042 
0.039978 0.034913 0.081073 
0.039477 0.035166 0.081094 
0.038976 0.035546 0.081125 
0.038475 0.035799 0.081146 
0.037974 0.036179 0.081177 
0.037472 0.036686 0.081218 
0.036971 0.037193 0.081259 
0.036469 0.037700 0.081300 
0.035968 0.038208 0.081342 
0.035466 0.038588 0.081373 
0.034965 0.038968 0.081404 
0.034464 0.039475 0.081445 
0.033963 0.039855 0.081476 
0.033462 0.040108 0.081497 
0.032961 0.040488 0.081528 
0.032460 0.040741 0.081549 
0.031959 0.040994 0.081570 
0.031459 0.041246 0.081591 
0.030958 0.041499 0.081612 
0.030457 0.041752 0.081633 
0.029956 0.042005 0.081654 
0.029455 0.042258 0.081675 
0.028955 0.042511 0.081695 
0.028454 0.042891 0.081727 
0.027953 0.043144 0.081747 
0.027452 0.043396 0.081768 
0.026951 0.043649 0.081789 
0.026451 0.043902 0.081810 
0.025950 0.044028 0.081821 
0.025449 0.044281 0.081842 
0.024949 0.044406 0.081853 
0.024449 0.044532 0.081864 
0.023948 0.044785 0.081885 
0.023448 0.044910 0.081895 
0.022947 0.045036 0.081906 
0.022447 0.045162 0.081917 
0.021946 0.045287 0.081928 
0.021446 0.045413 0.081939 
0.020946 0.045539 0.081949 
0.020446 0.045537 0.081950 
0.019945 0.045663 0.081961 
0.019445 0.045788 0.081972 
0.018945 0.045787 0.081972 
0.018445 0.045785 0.081973 
0.017945 0.045784 0.081974 
0.017444 0.045909 0.081984 
0.016944 0.045908 0.081985 
0.016444 0.046033 0.081996 
0.015945 0.045905 0.081986 
0.015444 0.046030 0.081997 
0.014944 0.046029 0.081998 
0.014444 0.046027 0.081999 
0.013944 0.046026 0.081999 
0.013444 0.046151 0.082010 
0.012944 0.046150 0.082011 
0.012444 0.046148 0.082011 
0.011944 0.046147 0.082012 
0.011443 0.046272 0.082023 
0.010943 0.046271 0.082023 
0.010443 0.046269 0.082024 
0.009943 0.046268 0.082025 
0.009443 0.046266 0.082025 
0.008943 0.046265 0.082026 
0.008443 0.046263 0.082027 
0.007943 0.046261 0.082027 
0.007443 0.046260 0.082028 
0.006944 0.046131 0.082019 
0.006444 0.046130 0.082019 
0.005944 0.046128 0.082020 
0.005444 0.045999 0.082010 
0.004945 0.045871 0.082001 
0.004445 0.045869 0.082002 
0.003945 0.045740 0.081992 
0.003445 0.045612 0.081983 
0.002946 0.045483 0.081973 
0.002446 0.045481 0.081974 
0.001946 0.045225 0.081954 
0.001447 0.044969 0.081935 
0.000948 0.044841 0.081925 
0.000448 0.044712 0.081916 
-0.000052 0.044583 0.081906 
-0.000551 0.044327 0.081887 
-0.001050 0.044198 0.081877 
-0.001550 0.043943 0.081858 
-0.002049 0.043687 0.081838 
-0.002549 0.043685 0.081839 
-0.003048 0.043429 0.081819 
-0.003548 0.043300 0.081810 
-0.004047 0.043172 0.081800 
-0.004547 0.042916 0.081780 
-0.005046 0.042787 0.081771 
-0.005545 0.042531 0.081751 
-0.006045 0.042275 0.081732 
-0.006544 0.042019 0.081712 
-0.007043 0.041763 0.081693 
-0.007542 0.041507 0.081673 
-0.008042 0.041251 0.081653 
-0.008541 0.041122 0.081644 
-0.009040 0.040866 0.081624 
-0.009540 0.040611 0.081605 
-0.010039 0.040355 0.081585 
-0.010539 0.040226 0.081576 
-0.011037 0.039843 0.081546 
-0.011537 0.039587 0.081526 
-0.012036 0.039458 0.081517 
-0.012535 0.039075 0.081487 
-0.013034 0.038692 0.081457 
-0.013533 0.038436 0.081438 
-0.014032 0.038053 0.081408 
-0.014531 0.037797 0.081388 
-0.015030 0.037286 0.081349 
-0.015528 0.036649 0.081299 
-0.016026 0.036139 0.081259 
-0.016526 0.035883 0.081239 
-0.017024 0.035372 0.081199 
-0.017522 0.034735 0.081149 
-0.018020 0.034097 0.081099 
-0.018518 0.033333 0.081039 
-0.019016 0.032695 0.080989 
-0.019511 0.031167 0.080868 
-0.020010 0.030529 0.080818 
-0.020506 0.029256 0.080717 
-0.021005 0.028873 0.080688 
-0.021503 0.028490 0.080658 
-0.022002 0.027852 0.080608 
-0.022500 0.027469 0.080578 
-0.022999 0.026959 0.080538 
-0.023497 0.026321 0.080488 
-0.023996 0.025938 0.080459 
-0.024494 0.025173 0.080398 
-0.024991 0.024409 0.080338 
-0.025486 0.022626 0.080197 
-0.025984 0.022116 0.080157 
-0.026481 0.021097 0.080077 
-0.026978 0.019951 0.079986 
-0.027474 0.018804 0.079896 
-0.027973 0.018421 0.079866 
-0.028471 0.017784 0.079816 
-0.028966 0.016001 0.079675 
-0.029465 0.015618 0.079645 
-0.029963 0.015108 0.079605 
-0.030459 0.013707 0.079494 
-0.030957 0.013070 0.079444 
-0.031450 0.010778 0.079263 
-0.031950 0.010522 0.079243 
-0.032444 0.008740 0.079102 
-0.032944 0.008739 0.079102 
-0.033444 0.008737 0.079103 
-0.033941 0.007718 0.079023 
-0.034431 0.004192 0.078750 
-0.034923 0.001631 0.078558 
-0.035424 0.001899 0.078578 
-0.035917 -0.000257 0.078417 
-0.036409 -0.002953 0.078215 
-0.036906 -0.003897 0.078144 
-0.037402 -0.005246 0.078044 
-0.037900 -0.006055 0.077983 
-0.038856 -0.020605 0.076889 
0.058335 -0.000506 0.078970 
0.057829 0.001378 0.079111 
0.057327 0.002185 0.079172 
0.056825 0.002857 0.079223 
0.056323 0.003259 0.079254 
0.055810 0.007867 0.079606 
0.055302 0.010282 0.079799 
0.054802 0.010535 0.079820 
0.054290 0.014223 0.080113 
0.053788 0.015112 0.080184 
0.053282 0.016891 0.080326 
0.052779 0.018162 0.080428 
0.052276 0.019178 0.080509 
0.051775 0.019430 0.080530 
0.051273 0.020065 0.080581 
0.050770 0.021208 0.080673 
0.050266 0.022479 0.080774 
0.049763 0.023495 0.080856 
0.049261 0.024129 0.080907 
0.048759 0.024764 0.080958 
0.048257 0.025271 0.080999 
0.047756 0.025778 0.081040 
0.047255 0.026159 0.081071 
0.046754 0.026539 0.081102 
0.046252 0.027173 0.081153 
0.045751 0.027553 0.081184 
0.045249 0.027933 0.081215 
0.044747 0.028568 0.081266 
0.044245 0.029329 0.081327 
0.043743 0.030218 0.081399 
0.043239 0.031362 0.081490 
0.042738 0.031869 0.081531 
0.042235 0.032758 0.081602 
0.041733 0.033265 0.081643 
0.041231 0.033900 0.081695 
0.040731 0.034153 0.081715 
0.040229 0.034660 0.081757 
0.039728 0.034913 0.081777 
0.039227 0.035293 0.081808 
0.038727 0.035546 0.081829 
0.038225 0.035926 0.081860 
0.037724 0.036433 0.081901 
0.037223 0.036813 0.081932 
0.036721 0.037448 0.081983 
0.036220 0.037828 0.082014 
0.035718 0.038335 0.082055 
0.035217 0.038842 0.082096 
0.034716 0.039222 0.082127 
0.034214 0.039730 0.082168 
0.033713 0.039982 0.082189 
0.033212 0.040235 0.082210 
0.032712 0.040488 0.082231 
0.032211 0.040868 0.082262 
0.031710 0.041121 0.082282 
0.031209 0.041374 0.082303 
0.030708 0.041627 0.082324 
0.030208 0.041752 0.082335 
0.029707 0.042005 0.082356 
0.029206 0.042385 0.082387 
0.028705 0.042765 0.082418 
0.028204 0.043018 0.082439 
0.027703 0.043271 0.082459 
0.027203 0.043524 0.082480 
0.026702 0.043777 0.082501 
0.026201 0.043903 0.082512 
0.025701 0.044155 0.082533 
0.025200 0.044281 0.082544 
0.024700 0.044534 0.082564 
0.024199 0.044660 0.082575 
0.023699 0.044785 0.082586 
0.023198 0.044911 0.082597 
0.022698 0.045164 0.082617 
0.022198 0.045162 0.082618 
0.021697 0.045415 0.082639 
0.021197 0.045414 0.082640 
0.020697 0.045412 0.082640 
0.020197 0.045538 0.082651 
0.019696 0.045663 0.082662 
0.019196 0.045662 0.082662 
0.018696 0.045660 0.082663 
0.018196 0.045659 0.082664 
0.017696 0.045784 0.082674 
0.017196 0.045783 0.082675 
0.016696 0.045781 0.082676 
0.016195 0.045907 0.082687 
0.015695 0.045905 0.082687 
0.015195 0.045904 0.082688 
0.014695 0.046029 0.082699 
0.014195 0.046028 0.082699 
0.013695 0.046026 0.082700 
0.013195 0.046152 0.082711 
0.012695 0.046150 0.082711 
0.012195 0.046149 0.082712 
0.011695 0.046147 0.082713 
0.011195 0.046146 0.082713 
0.010694 0.046271 0.082724 
0.010194 0.046270 0.082725 
0.009694 0.046268 0.082726 
0.009194 0.046267 0.082726 
0.008694 0.046265 0.082727 
0.008194 0.046264 0.082728 
0.007694 0.046262 0.082728 
0.007195 0.046133 0.082719 
0.006695 0.046132 0.082719 
0.006195 0.046003 0.082710 
0.005695 0.046002 0.082711 
0.005195 0.045873 0.082701 
0.004696 0.045744 0.082692 
0.004196 0.045742 0.082692 
0.003696 0.045614 0.082683 
0.003197 0.045485 0.082674 
0.002697 0.045356 0.082664 
0.002198 0.045100 0.082645 
0.001698 0.044971 0.082635 
0.001199 0.044843 0.082626 
0.000699 0.044587 0.082606 
0.000200 0.044458 0.082597 
-0.000300 0.044329 0.082587 
-0.000799 0.044073 0.082568 
-0.001299 0.043945 0.082558 
-0.001798 0.043816 0.082549 
-0.002298 0.043687 0.082540 
-0.002798 0.043558 0.082530 
-0.003297 0.043429 0.082521 
-0.003797 0.043301 0.082511 
-0.004296 0.043172 0.082502 
-0.004796 0.042916 0.082482 
-0.005295 0.042660 0.082463 
-0.005795 0.042531 0.082453 
-0.006294 0.042275 0.082434 
-0.006793 0.042019 0.082414 
-0.007292 0.041763 0.082395 
-0.007791 0.041507 0.082375 
-0.008291 0.041251 0.082356 
-0.008790 0.041123 0.082346 
-0.009290 0.040867 0.082327 
-0.009789 0.040738 0.082317 
-0.010288 0.040482 0.082298 
-0.010788 0.040226 0.082278 
-0.011287 0.039843 0.082249 
-0.011786 0.039714 0.082239 
-0.012285 0.039331 0.082210 
-0.012784 0.039075 0.082190 
-0.013283 0.038819 0.082171 
-0.013782 0.038436 0.082141 
-0.014282 0.038180 0.082122 
-0.014780 0.037797 0.082092 
-0.015279 0.037286 0.082052 
-0.015778 0.036903 0.082023 
-0.016276 0.036266 0.081973 
-0.016774 0.035755 0.081933 
-0.017273 0.035372 0.081904 
-0.017771 0.034734 0.081854 
-0.018269 0.034097 0.081804 
-0.018767 0.033332 0.081744 
-0.019262 0.031677 0.081613 
-0.019758 0.030276 0.081503 
-0.020255 0.029257 0.081423 
-0.020754 0.029001 0.081403 
-0.021252 0.028363 0.081354 
-0.021751 0.028107 0.081334 
-0.022250 0.027597 0.081294 
-0.022748 0.027086 0.081255 
-0.023246 0.026449 0.081205 
-0.023745 0.026066 0.081175 
-0.024243 0.025428 0.081126 
-0.024741 0.024663 0.081066 
-0.025237 0.023262 0.080955 
-0.025735 0.022498 0.080895 
-0.026232 0.021478 0.080815 
-0.026728 0.020205 0.080715 
-0.027225 0.019440 0.080655 
-0.027723 0.018548 0.080585 
-0.028221 0.017910 0.080535 
-0.028719 0.017145 0.080476 
-0.029214 0.015745 0.080365 
-0.029713 0.015234 0.080325 
-0.030210 0.014215 0.080245 
-0.030707 0.013196 0.080165 
-0.031204 0.012431 0.080105 
-0.031699 0.010649 0.079965 
-0.032198 0.010138 0.079925 
-0.032693 0.008610 0.079805 
-0.033193 0.008609 0.079805 
-0.033693 0.008480 0.079796 
-0.034188 0.006952 0.079675 
-0.034672 0.001496 0.079264 
-0.035172 0.001763 0.079285 
-0.035666 -0.000258 0.079135 
-0.036158 -0.003088 0.078925 
-0.036657 -0.003494 0.078896 
-0.037153 -0.004842 0.078796 
-0.037649 -0.006056 0.078706 
-0.038146 -0.007135 0.078627 
-0.038605 -0.020605 0.077624 
-0.039107 -0.020202 0.077655 
0.058086 -0.000778 0.079670 
0.057580 0.001510 0.079839 
0.057076 0.002586 0.079919 
0.056576 0.002854 0.079940 
0.056067 0.005546 0.080139 
0.055558 0.008627 0.080380 
0.055053 0.010407 0.080521 
0.054552 0.010533 0.080532 
0.054042 0.013966 0.080804 
0.053539 0.014982 0.080885 
0.053033 0.017016 0.081047 
0.052529 0.018287 0.081148 
0.052027 0.018921 0.081199 
0.051526 0.019429 0.081240 
0.051022 0.020699 0.081341 
0.050519 0.021843 0.081432 
0.050016 0.022859 0.081513 
0.049513 0.023748 0.081584 
0.049011 0.024255 0.081625 
0.048510 0.024763 0.081666 
0.048008 0.025397 0.081717 
0.047507 0.025777 0.081748 
0.047005 0.026285 0.081788 
0.046503 0.026919 0.081839 
0.046002 0.027426 0.081880 
0.045500 0.027934 0.081921 
0.044999 0.028314 0.081952 
0.044498 0.028567 0.081973 
0.043996 0.029329 0.082034 
0.043492 0.030726 0.082145 
0.042990 0.031488 0.082206 
0.042487 0.032250 0.082267 
0.041985 0.032885 0.082318 
0.041484 0.033392 0.082359 
0.040982 0.033899 0.082399 
0.040481 0.034407 0.082440 
0.039980 0.034659 0.082461 
0.039479 0.035039 0.082492 
0.038978 0.035420 0.082523 
0.038477 0.035672 0.082543 
0.037976 0.036053 0.082574 
0.037474 0.036560 0.082615 
0.036973 0.037067 0.082656 
0.036471 0.037575 0.082697 
0.035970 0.038082 0.082738 
0.035468 0.038589 0.082779 
0.034967 0.038969 0.082809 
0.034466 0.039477 0.082850 
0.033965 0.039857 0.082881 
0.033464 0.040110 0.082902 
0.032963 0.040490 0.082933 
0.032462 0.040743 0.082954 
0.031961 0.040996 0.082974 
0.031460 0.041249 0.082995 
0.030960 0.041374 0.083006 
0.030459 0.041627 0.083027 
0.029958 0.041880 0.083047 
0.029457 0.042260 0.083078 
0.028957 0.042513 0.083099 
0.028455 0.042893 0.083130 
0.027954 0.043273 0.083160 
0.027454 0.043399 0.083171 
0.026953 0.043652 0.083192 
0.026453 0.043777 0.083203 
0.025952 0.044030 0.083223 
0.025452 0.044156 0.083234 
0.024951 0.044409 0.083255 
0.024451 0.044534 0.083266 
0.023950 0.044660 0.083276 
0.023450 0.044786 0.083287 
0.022949 0.045039 0.083308 
0.022449 0.045164 0.083319 
0.021949 0.045163 0.083319 
0.021448 0.045288 0.083330 
0.020948 0.045414 0.083341 
0.020447 0.045540 0.083351 
0.019947 0.045538 0.083352 
0.019447 0.045537 0.083353 
0.018947 0.045535 0.083353 
0.018447 0.045661 0.083364 
0.017947 0.045659 0.083365 
0.017447 0.045785 0.083375 
0.016947 0.045783 0.083376 
0.016447 0.045782 0.083377 
0.015947 0.045780 0.083377 
0.015446 0.045906 0.083388 
0.014946 0.045904 0.083389 
0.014446 0.045903 0.083389 
0.013946 0.046029 0.083400 
0.013446 0.046027 0.083401 
0.012946 0.046025 0.083402 
0.012446 0.046024 0.083402 
0.011946 0.046022 0.083403 
0.011446 0.046148 0.083414 
0.010946 0.046146 0.083414 
0.010446 0.046145 0.083415 
0.009946 0.046143 0.083416 
0.009445 0.046269 0.083426 
0.008946 0.046140 0.083417 
0.008446 0.046139 0.083418 
0.007946 0.046137 0.083418 
0.007446 0.046136 0.083419 
0.006946 0.046134 0.083420 
0.006446 0.046005 0.083410 
0.005946 0.046004 0.083411 
0.005447 0.045748 0.083391 
0.004947 0.045746 0.083392 
0.004447 0.045617 0.083383 
0.003947 0.045616 0.083383 
0.003448 0.045360 0.083364 
0.002948 0.045231 0.083354 
0.002449 0.045102 0.083345 
0.001949 0.044846 0.083326 
0.001450 0.044718 0.083316 
0.000951 0.044462 0.083297 
0.000451 0.044333 0.083287 
-0.000049 0.044331 0.083288 
-0.000548 0.044075 0.083269 
-0.001048 0.043947 0.083259 
-0.001547 0.043818 0.083250 
-0.002047 0.043816 0.083251 
-0.002547 0.043687 0.083241 
-0.003047 0.043686 0.083242 
-0.003546 0.043430 0.083222 
-0.004046 0.043301 0.083213 
-0.004546 0.043172 0.083204 
-0.005045 0.042916 0.083184 
-0.005544 0.042660 0.083165 
-0.006044 0.042532 0.083155 
-0.006543 0.042276 0.083136 
-0.007042 0.042020 0.083117 
-0.007541 0.041764 0.083097 
-0.008041 0.041508 0.083078 
-0.008540 0.041379 0.083068 
-0.009039 0.041123 0.083049 
-0.009539 0.040994 0.083039 
-0.010038 0.040738 0.083020 
-0.010537 0.040482 0.083001 
-0.011037 0.040226 0.082981 
-0.011536 0.039970 0.082962 
-0.012035 0.039714 0.082942 
-0.012534 0.039331 0.082913 
-0.013033 0.039075 0.082893 
-0.013532 0.038692 0.082864 
-0.014031 0.038436 0.082844 
-0.014530 0.038053 0.082815 
-0.015029 0.037669 0.082785 
-0.015528 0.037159 0.082746 
-0.016026 0.036776 0.082716 
-0.016525 0.036265 0.082677 
-0.017023 0.035755 0.082637 
-0.017522 0.035244 0.082598 
-0.018020 0.034607 0.082548 
-0.018518 0.033969 0.082499 
-0.019015 0.032823 0.082409 
-0.019507 0.030277 0.082208 
-0.020005 0.029766 0.082169 
-0.020504 0.029129 0.082119 
-0.021002 0.028618 0.082080 
-0.021500 0.028108 0.082040 
-0.022000 0.027852 0.082021 
-0.022498 0.027214 0.081971 
-0.022996 0.026704 0.081932 
-0.023495 0.026193 0.081892 
-0.023993 0.025683 0.081853 
-0.024491 0.024791 0.081783 
-0.024989 0.024280 0.081743 
-0.025484 0.022625 0.081613 
-0.025983 0.022114 0.081574 
-0.026479 0.020841 0.081474 
-0.026975 0.019694 0.081384 
-0.027473 0.018929 0.081324 
-0.027971 0.018164 0.081265 
-0.028468 0.017272 0.081195 
-0.028964 0.015999 0.081095 
-0.029462 0.015361 0.081046 
-0.029960 0.014596 0.080986 
-0.030455 0.013068 0.080866 
-0.030953 0.012176 0.080796 
-0.031449 0.011029 0.080707 
-0.031947 0.010392 0.080657 
-0.032442 0.008482 0.080507 
-0.032941 0.008353 0.080498 
-0.033441 0.008351 0.080498 
-0.033937 0.007078 0.080398 
-0.034428 0.004053 0.080170 
-0.034922 0.001897 0.080011 
-0.035416 0.000010 0.079873 
-0.035917 0.000143 0.079884 
-0.036406 -0.003360 0.079626 
-0.036905 -0.003631 0.079607 
-0.037399 -0.005787 0.079449 
-0.037895 -0.007136 0.079351 
-0.038377 -0.013197 0.078905 
-0.038855 -0.020471 0.078370 
0.058361 -0.008724 0.079810 
0.057832 0.000970 0.080517 
0.057328 0.002450 0.080625 
0.056828 0.002449 0.080626 
0.056318 0.005814 0.080872 
0.055811 0.007863 0.081032 
0.055305 0.010024 0.081203 
0.054803 0.010786 0.081264 
0.054302 0.011039 0.081285 
0.053802 0.011165 0.081295 
0.053291 0.014725 0.081576 
0.052784 0.017014 0.081757 
0.052281 0.018030 0.081838 
0.051778 0.018919 0.081909 
0.051278 0.019172 0.081929 
0.050771 0.021334 0.082100 
0.050268 0.022350 0.082181 
0.049766 0.023112 0.082242 
0.049264 0.023746 0.082292 
0.048762 0.024381 0.082343 
0.048260 0.025016 0.082394 
0.047759 0.025396 0.082424 
0.047257 0.025903 0.082465 
0.046755 0.026665 0.082526 
0.046254 0.027172 0.082566 
0.045752 0.027680 0.082607 
0.045251 0.028060 0.082638 
0.044750 0.028440 0.082669 
0.044249 0.028566 0.082679 
0.043749 0.028564 0.082680 
0.043242 0.031107 0.082881 
0.042740 0.031742 0.082931 
0.042238 0.032377 0.082982 
0.041736 0.033011 0.083033 
0.041235 0.033519 0.083074 
0.040733 0.034026 0.083114 
0.040232 0.034406 0.083145 
0.039731 0.034786 0.083176 
0.039230 0.035166 0.083206 
0.038728 0.035547 0.083237 
0.038227 0.035927 0.083268 
0.037726 0.036307 0.083298 
0.037225 0.036814 0.083339 
0.036723 0.037322 0.083380 
0.036222 0.037702 0.083410 
0.035720 0.038209 0.083451 
0.035219 0.038716 0.083492 
0.034717 0.039224 0.083533 
0.034216 0.039604 0.083563 
0.033715 0.039984 0.083594 
0.033214 0.040237 0.083615 
0.032713 0.040617 0.083645 
0.032212 0.040870 0.083666 
0.031712 0.041123 0.083687 
0.031211 0.041376 0.083707 
0.030711 0.041502 0.083718 
0.030210 0.041755 0.083739 
0.029709 0.042007 0.083759 
0.029208 0.042388 0.083790 
0.028707 0.042768 0.083821 
0.028206 0.043021 0.083842 
0.027705 0.043274 0.083862 
0.027204 0.043526 0.083883 
0.026704 0.043779 0.083904 
0.026203 0.043905 0.083914 
0.025703 0.044158 0.083935 
0.025202 0.044284 0.083946 
0.024702 0.044409 0.083956 
0.024201 0.044662 0.083977 
0.023701 0.044788 0.083988 
0.023200 0.044914 0.083998 
0.022700 0.045039 0.084009 
0.022200 0.045165 0.084020 
0.021699 0.045291 0.084030 
0.021199 0.045289 0.084031 
0.020699 0.045415 0.084042 
0.020199 0.045413 0.084042 
0.019699 0.045412 0.084043 
0.019198 0.045537 0.084054 
0.018698 0.045536 0.084054 
0.018198 0.045534 0.084055 
0.017698 0.045660 0.084066 
0.017198 0.045658 0.084066 
0.016698 0.045657 0.084067 
0.016198 0.045783 0.084078 
0.015698 0.045781 0.084078 
0.015197 0.045907 0.084089 
0.014697 0.045905 0.084090 
0.014197 0.045904 0.084090 
0.013697 0.045902 0.084091 
0.013197 0.045900 0.084092 
0.012697 0.046026 0.084102 
0.012197 0.046025 0.084103 
0.011697 0.046023 0.084104 
0.011197 0.046021 0.084104 
0.010697 0.046147 0.084115 
0.010197 0.046146 0.084116 
0.009697 0.046144 0.084116 
0.009197 0.046142 0.084117 
0.008697 0.046141 0.084118 
0.008197 0.046139 0.084118 
0.007697 0.046011 0.084109 
0.007197 0.046009 0.084110 
0.006697 0.046008 0.084110 
0.006197 0.045879 0.084101 
0.005697 0.045877 0.084102 
0.005198 0.045748 0.084092 
0.004698 0.045620 0.084083 
0.004198 0.045491 0.084074 
0.003699 0.045362 0.084064 
0.003199 0.045233 0.084055 
0.002700 0.044977 0.084036 
0.002200 0.044849 0.084026 
0.001701 0.044720 0.084017 
0.001201 0.044591 0.084008 
0.000702 0.044335 0.083988 
0.000202 0.044333 0.083989 
-0.000298 0.044205 0.083979 
-0.000798 0.044203 0.083980 
-0.001297 0.044074 0.083971 
-0.001797 0.044073 0.083971 
-0.002297 0.043944 0.083962 
-0.002797 0.043815 0.083953 
-0.003296 0.043686 0.083943 
-0.003795 0.043430 0.083924 
-0.004295 0.043302 0.083915 
-0.004795 0.043173 0.083905 
-0.005294 0.042917 0.083886 
-0.005793 0.042788 0.083877 
-0.006293 0.042532 0.083857 
-0.006792 0.042276 0.083838 
-0.007291 0.042020 0.083819 
-0.007790 0.041764 0.083799 
-0.008290 0.041635 0.083790 
-0.008789 0.041379 0.083771 
-0.009288 0.041123 0.083751 
-0.009788 0.040994 0.083742 
-0.010287 0.040738 0.083723 
-0.010787 0.040482 0.083703 
-0.011286 0.040226 0.083684 
-0.011785 0.039970 0.083664 
-0.012284 0.039587 0.083635 
-0.012783 0.039331 0.083616 
-0.013282 0.038948 0.083586 
-0.013781 0.038564 0.083557 
-0.014280 0.038309 0.083538 
-0.014779 0.038052 0.083518 
-0.015278 0.037542 0.083479 
-0.015776 0.037032 0.083440 
-0.016275 0.036648 0.083410 
-0.016774 0.036138 0.083371 
-0.017272 0.035627 0.083331 
-0.017770 0.034990 0.083282 
-0.018268 0.034225 0.083223 
-0.018766 0.033714 0.083183 
-0.019258 0.030786 0.082954 
-0.019756 0.030149 0.082904 
-0.020253 0.029384 0.082845 
-0.020752 0.028873 0.082806 
-0.021250 0.028363 0.082766 
-0.021749 0.027979 0.082737 
-0.022248 0.027469 0.082697 
-0.022746 0.026831 0.082648 
-0.023244 0.026321 0.082609 
-0.023742 0.025683 0.082559 
-0.024241 0.025173 0.082520 
-0.024738 0.024280 0.082451 
-0.025236 0.023643 0.082401 
-0.025732 0.022369 0.082302 
-0.026230 0.021604 0.082242 
-0.026727 0.020457 0.082153 
-0.027224 0.019565 0.082084 
-0.027721 0.018673 0.082014 
-0.028217 0.017399 0.081915 
-0.028714 0.016380 0.081835 
-0.029212 0.015487 0.081766 
-0.029710 0.014850 0.081716 
-0.030206 0.013576 0.081617 
-0.030701 0.012048 0.081498 
-0.031199 0.011155 0.081428 
-0.031697 0.010518 0.081379 
-0.032194 0.009498 0.081299 
-0.032690 0.008097 0.081190 
-0.033189 0.007968 0.081181 
-0.033687 0.007076 0.081111 
-0.034177 0.003782 0.080865 
-0.034671 0.001896 0.080728 
-0.035172 0.002163 0.080748 
-0.035666 0.000276 0.080612 
-0.036165 0.000006 0.080593 
-0.036654 -0.003632 0.080328 
-0.037147 -0.005923 0.080162 
-0.037643 -0.007405 0.080055 
-0.038142 -0.007676 0.080036 
-0.038624 -0.013603 0.079605 
-0.039122 -0.014547 0.079537 
0.058611 -0.008186 0.080574 
0.058111 -0.008187 0.080575 
0.057579 0.002180 0.081322 
0.057079 0.002313 0.081333 
0.056568 0.005947 0.081595 
0.056064 0.007225 0.081695 
0.055559 0.008878 0.081825 
0.055054 0.010530 0.081956 
0.054552 0.011165 0.082006 
0.054052 0.011418 0.082027 
0.053550 0.011925 0.082067 
0.053043 0.014469 0.082267 
0.052536 0.016503 0.082428 
0.052032 0.018156 0.082558 
0.051530 0.018663 0.082598 
0.051028 0.019425 0.082659 
0.050521 0.021587 0.082829 
0.050019 0.022476 0.082899 
0.049516 0.023238 0.082960 
0.049014 0.023872 0.083010 
0.048513 0.024380 0.083051 
0.048011 0.025014 0.083101 
0.047510 0.025267 0.083122 
0.047007 0.026411 0.083212 
0.046504 0.027173 0.083273 
0.046003 0.027553 0.083303 
0.045502 0.027933 0.083334 
0.045001 0.028313 0.083364 
0.044500 0.028566 0.083385 
0.044000 0.028692 0.083396 
0.043501 0.028436 0.083377 
0.042992 0.031488 0.083616 
0.042490 0.032123 0.083667 
0.041988 0.032758 0.083717 
0.041486 0.033265 0.083758 
0.040985 0.033773 0.083798 
0.040484 0.034153 0.083829 
0.039982 0.034660 0.083870 
0.039481 0.035040 0.083900 
0.038980 0.035421 0.083931 
0.038479 0.035801 0.083961 
0.037977 0.036181 0.083992 
0.037476 0.036561 0.084022 
0.036975 0.037068 0.084063 
0.036474 0.037449 0.084094 
0.035972 0.037956 0.084134 
0.035471 0.038464 0.084175 
0.034969 0.038844 0.084205 
0.034468 0.039351 0.084246 
0.033967 0.039731 0.084276 
0.033466 0.039984 0.084297 
0.032965 0.040364 0.084327 
0.032464 0.040617 0.084348 
0.031963 0.040998 0.084379 
0.031462 0.041250 0.084399 
0.030961 0.041503 0.084420 
0.030461 0.041629 0.084430 
0.029960 0.041882 0.084451 
0.029460 0.042135 0.084472 
0.028958 0.042515 0.084502 
0.028457 0.042895 0.084533 
0.027957 0.043148 0.084553 
0.027456 0.043401 0.084574 
0.026955 0.043654 0.084595 
0.026455 0.043780 0.084605 
0.025954 0.044033 0.084626 
0.025453 0.044159 0.084636 
0.024953 0.044411 0.084657 
0.024452 0.044537 0.084668 
0.023952 0.044663 0.084678 
0.023452 0.044789 0.084689 
0.022951 0.044914 0.084700 
0.022451 0.045040 0.084710 
0.021950 0.045166 0.084721 
0.021450 0.045291 0.084731 
0.020950 0.045290 0.084732 
0.020450 0.045288 0.084733 
0.019950 0.045414 0.084743 
0.019450 0.045412 0.084744 
0.018949 0.045538 0.084755 
0.018449 0.045536 0.084755 
0.017949 0.045535 0.084756 
0.017449 0.045533 0.084757 
0.016949 0.045659 0.084767 
0.016449 0.045658 0.084768 
0.015949 0.045656 0.084769 
0.015449 0.045782 0.084779 
0.014949 0.045780 0.084780 
0.014449 0.045779 0.084781 
0.013948 0.045904 0.084791 
0.013448 0.045903 0.084792 
0.012948 0.045901 0.084793 
0.012448 0.045900 0.084793 
0.011948 0.046025 0.084804 
0.011448 0.046024 0.084804 
0.010948 0.046022 0.084805 
0.010448 0.046021 0.084806 
0.009947 0.046146 0.084816 
0.009447 0.046145 0.084817 
0.008947 0.046143 0.084818 
0.008448 0.046014 0.084808 
0.007948 0.046013 0.084809 
0.007448 0.046011 0.084810 
0.006948 0.046010 0.084810 
0.006448 0.045881 0.084801 
0.005949 0.045752 0.084792 
0.005449 0.045751 0.084793 
0.004949 0.045622 0.084783 
0.004449 0.045493 0.084774 
0.003950 0.045364 0.084765 
0.003450 0.045236 0.084755 
0.002951 0.045107 0.084746 
0.002451 0.044978 0.084737 
0.001951 0.044849 0.084727 
0.001452 0.044720 0.084718 
0.000952 0.044592 0.084709 
0.000452 0.044463 0.084699 
-0.000048 0.044461 0.084700 
-0.000547 0.044332 0.084691 
-0.001047 0.044331 0.084692 
-0.001547 0.044202 0.084682 
-0.002046 0.044073 0.084673 
-0.002546 0.043944 0.084664 
-0.003046 0.043816 0.084654 
-0.003545 0.043687 0.084645 
-0.004044 0.043431 0.084626 
-0.004544 0.043302 0.084616 
-0.005043 0.043046 0.084597 
-0.005543 0.042917 0.084588 
-0.006042 0.042661 0.084569 
-0.006541 0.042405 0.084549 
-0.007041 0.042149 0.084530 
-0.007540 0.042020 0.084521 
-0.008039 0.041764 0.084501 
-0.008539 0.041635 0.084492 
-0.009038 0.041379 0.084473 
-0.009538 0.041123 0.084454 
-0.010037 0.040995 0.084444 
-0.010536 0.040738 0.084425 
-0.011035 0.040355 0.084396 
-0.011535 0.040226 0.084386 
-0.012034 0.039970 0.084367 
-0.012533 0.039587 0.084338 
-0.013032 0.039204 0.084309 
-0.013531 0.038821 0.084280 
-0.014030 0.038437 0.084250 
-0.014529 0.038181 0.084231 
-0.015028 0.037925 0.084212 
-0.015526 0.037287 0.084163 
-0.016025 0.036904 0.084133 
-0.016523 0.036394 0.084094 
-0.017022 0.036010 0.084065 
-0.017520 0.035373 0.084016 
-0.018018 0.034608 0.083957 
-0.018517 0.034097 0.083917 
-0.019008 0.031423 0.083709 
-0.019506 0.030658 0.083649 
-0.020004 0.029893 0.083590 
-0.020502 0.029128 0.083531 
-0.021000 0.028491 0.083482 
-0.021499 0.028234 0.083463 
-0.021997 0.027724 0.083424 
-0.022495 0.026959 0.083364 
-0.022994 0.026448 0.083325 
-0.023492 0.025938 0.083286 
-0.023990 0.025300 0.083237 
-0.024489 0.024917 0.083208 
-0.024986 0.023770 0.083119 
-0.025484 0.023132 0.083069 
-0.025980 0.021986 0.082980 
-0.026478 0.021093 0.082911 
-0.026974 0.019819 0.082812 
-0.027472 0.019182 0.082763 
-0.027969 0.018289 0.082694 
-0.028465 0.016888 0.082585 
-0.028962 0.015741 0.082496 
-0.029460 0.015104 0.082447 
-0.029958 0.014466 0.082398 
-0.030450 0.011919 0.082199 
-0.030949 0.011409 0.082160 
-0.031446 0.010644 0.082100 
-0.031944 0.010006 0.082051 
-0.032441 0.008732 0.081952 
-0.032937 0.007585 0.081863 
-0.033436 0.007075 0.081824 
-0.033933 0.006310 0.081765 
-0.034420 0.002029 0.081454 
-0.034920 0.002027 0.081455 
-0.035415 0.000275 0.081329 
-0.035915 0.000274 0.081330 
-0.036414 -0.000266 0.081292 
-0.036903 -0.003634 0.081050 
-0.037392 -0.007541 0.080769 
-0.037890 -0.007946 0.080741 
-0.038379 -0.011853 0.080460 
-0.038872 -0.014143 0.080296 
-0.039369 -0.015087 0.080229 
0.058361 -0.008053 0.081309 
0.057832 0.001505 0.081991 
0.057324 0.004196 0.082183 
0.056819 0.005811 0.082299 
0.056316 0.006842 0.082378 
0.055810 0.009131 0.082558 
0.055308 0.009638 0.082598 
0.054804 0.010909 0.082698 
0.054302 0.011544 0.082748 
0.053801 0.011924 0.082779 
0.053298 0.012814 0.082849 
0.052797 0.013448 0.082899 
0.052289 0.016119 0.083108 
0.051782 0.018154 0.083268 
0.051282 0.018407 0.083288 
0.050774 0.020823 0.083478 
0.050272 0.021712 0.083548 
0.049769 0.022601 0.083618 
0.049267 0.023236 0.083668 
0.048765 0.023998 0.083728 
0.048264 0.024378 0.083759 
0.047763 0.024631 0.083779 
0.047259 0.026030 0.083889 
0.046756 0.026919 0.083959 
0.046255 0.027299 0.083990 
0.045754 0.027679 0.084020 
0.045253 0.028060 0.084051 
0.044752 0.028440 0.084081 
0.044251 0.028565 0.084092 
0.043751 0.028564 0.084092 
0.043244 0.030853 0.084272 
0.042741 0.031997 0.084362 
0.042239 0.032631 0.084412 
0.041738 0.033012 0.084442 
0.041236 0.033646 0.084493 
0.040735 0.034027 0.084523 
0.040234 0.034407 0.084554 
0.039733 0.034787 0.084584 
0.039231 0.035167 0.084615 
0.038730 0.035547 0.084645 
0.038229 0.036055 0.084685 
0.037728 0.036308 0.084706 
0.037226 0.036815 0.084746 
0.036725 0.037196 0.084777 
0.036224 0.037703 0.084817 
0.035723 0.038083 0.084848 
0.035221 0.038591 0.084888 
0.034720 0.038971 0.084918 
0.034218 0.039478 0.084959 
0.033717 0.039859 0.084989 
0.033217 0.040112 0.085010 
0.032715 0.040492 0.085040 
0.032215 0.040745 0.085061 
0.031714 0.041125 0.085091 
0.031213 0.041251 0.085102 
0.030712 0.041504 0.085122 
0.030212 0.041757 0.085143 
0.029711 0.041882 0.085153 
0.029210 0.042263 0.085184 
0.028709 0.042643 0.085214 
0.028208 0.043023 0.085245 
0.027707 0.043149 0.085255 
0.027207 0.043402 0.085276 
0.026706 0.043655 0.085296 
0.026205 0.043908 0.085317 
0.025705 0.044033 0.085327 
0.025204 0.044159 0.085338 
0.024704 0.044412 0.085358 
0.024203 0.044538 0.085369 
0.023703 0.044791 0.085390 
0.023202 0.044916 0.085400 
0.022702 0.044915 0.085401 
0.022202 0.045041 0.085411 
0.021701 0.045166 0.085422 
0.021201 0.045165 0.085423 
0.020701 0.045290 0.085433 
0.020201 0.045289 0.085434 
0.019701 0.045287 0.085435 
0.019201 0.045413 0.085445 
0.018701 0.045411 0.085446 
0.018200 0.045537 0.085456 
0.017700 0.045536 0.085457 
0.017200 0.045534 0.085458 
0.016700 0.045532 0.085458 
0.016200 0.045658 0.085469 
0.015700 0.045657 0.085470 
0.015200 0.045782 0.085480 
0.014700 0.045653 0.085471 
