ply
format ascii 1.0
comment PCL generated
element vertex 569
property float x
property float y
property float z
property float nx
property float ny
property float nz
property float curvature
element camera 0
property float view_px
property float view_py
property float view_pz
property float x_axisx
property float x_axisy
property float x_axisz
property float y_axisx
property float y_axisy
property float y_axisz
property float z_axisx
property float z_axisy
property float z_axisz
property float focal
property float scalex
property float scaley
property float centerx
property float centery
property int viewportx
property int viewporty
property float k1
property float k2
end_header
0.073017858 -0.15670702 -0.0025208332 0.45842975 -0.84778076 0.51140279 0.051104315
0.072506294 -0.15646215 -0.00170633 0.32825816 -0.85626626 0.51331592 0.056649849
0.071999222 -0.15620236 -0.0010212967 0.20595583 -0.8558321 0.52003402 0.055999704
0.071496531 -0.15632573 -0.0010969876 0.052901797 -0.85988367 0.52457148 0.053521801
0.07099475 -0.15637773 -0.0012047603 -0.083609529 -0.85166383 0.52985924 0.053488459
0.070498958 -0.15625769 -0.0011301546 -0.22552629 -0.85286421 0.52092206 0.053349376
0.069993697 -0.15636651 -0.0016118748 -0.35606116 -0.83694494 0.53425753 0.051201992
0.069492847 -0.15636124 -0.0020157313 -0.48657972 -0.82477176 0.54121894 0.049357384
0.068988129 -0.15644504 -0.0026450921 -0.60910112 -0.81615376 0.54708409 0.046621218
0.068470567 -0.1566647 -0.0035965077 -0.7232582 -0.80022669 0.54580188 0.041441124
0.067958429 -0.1567699 -0.0044793976 -0.84087878 -0.78879708 0.54156172 0.039331935
0.067459606 -0.15669014 -0.0051936549 -0.96181571 -0.77609426 0.53827423 0.037418995
0.066944562 -0.15673566 -0.0062319427 -1.0754732 -0.75248069 0.53004134 0.033959139
0.058573149 -0.15674117 0.0080927387 0.5672459 -0.88647234 0.46936536 0.020814206
0.058018371 -0.15651689 0.0090879845 0.45332471 -0.8819958 0.52824891 0.024772437
0.057499729 -0.1564005 0.0096853925 0.35597956 -0.88774478 0.56203473 0.029051732
0.057002272 -0.15646158 0.0098925326 0.30628291 -0.87285352 0.59420478 0.031816751
0.056499995 -0.15640916 0.010189968 0.24833617 -0.85140723 0.62791598 0.03327487
0.05600135 -0.15638456 0.010399835 0.18794173 -0.83482862 0.6487031 0.035819262
0.055503041 -0.15638526 0.010520858 0.14900172 -0.80768502 0.67870224 0.037241928
0.054994375 -0.1564624 0.010520754 0.11766551 -0.77987444 0.7047075 0.039349373
0.054506417 -0.15639007 0.01064891 0.067712441 -0.75501347 0.72532332 0.041552704
0.05400604 -0.15639944 0.010662778 0.032840133 -0.7240538 0.74926591 0.043553442
0.053506777 -0.15640041 0.010662973 -0.00416341 -0.6901834 0.76995367 0.044399437
0.053010795 -0.15639164 0.010645353 -0.040059358 -0.6550675 0.78938437 0.044253029
0.052499991 -0.15642202 0.010578042 -0.073716581 -0.62216872 0.80567235 0.044615634
0.052010387 -0.15639761 0.010530129 -0.10982693 -0.58799189 0.81968981 0.04505305
0.051506244 -0.15640612 0.010424697 -0.14126614 -0.55567187 0.83286434 0.045683458
0.051003221 -0.15641098 0.010311319 -0.17207085 -0.52260476 0.84394485 0.045516122
0.050502211 -0.15641023 0.010188689 -0.19952282 -0.48837018 0.85522217 0.04411421
0.050007809 -0.1563998 0.010042241 -0.227772 -0.4572067 0.86292809 0.043633189
0.049487807 -0.15642354 0.0098570809 -0.2513358 -0.42607281 0.87147796 0.041103356
0.04900061 -0.15640327 0.0096881408 -0.2786887 -0.39725161 0.87579417 0.039503783
0.048518587 -0.1563817 0.0095096016 -0.30567527 -0.36803946 0.87870687 0.036946181
0.048044618 -0.1563554 0.0093159359 -0.32795253 -0.34210825 0.8808223 0.035686545
0.047538288 -0.15636188 0.009085957 -0.34859261 -0.31514883 0.88292044 0.032873884
0.04699963 -0.15638727 0.0088018691 -0.36860836 -0.28736466 0.88413137 0.030652262
0.046452053 -0.1564105 0.0085285017 -0.38846493 -0.26018208 0.88397819 0.028321745
0.045810826 -0.1564775 0.0082018161 -0.40421453 -0.23463467 0.88406277 0.028712647
0.045167226 -0.1565301 0.0078635551 -0.42003492 -0.2102 0.88289768 0.028323041
0.044617776 -0.15652059 0.0075591984 -0.43494093 -0.18561138 0.88120699 0.027063316
0.044070125 -0.1565111 0.0072470577 -0.44974703 -0.16370283 0.87816566 0.025706552
0.043627776 -0.1564678 0.0069857645 -0.4610801 -0.14502758 0.87560809 0.024909282
0.0431876 -0.15643504 0.0067325588 -0.47033882 -0.12944542 0.87322712 0.02428316
0.042856041 -0.15637866 0.0065320595 -0.47738206 -0.11699626 0.87120622 0.023133671
0.042470708 -0.15634365 0.0063154204 -0.48604193 -0.10457106 0.86794353 0.023061002
0.042153269 -0.15630171 0.0061109774 -0.48952925 -0.093432449 0.86734027 0.022643972
0.041779861 -0.15627404 0.005883994 -0.49319068 -0.084556453 0.86631274 0.02254834
0.04134845 -0.15626147 0.0056370371 -0.49665666 -0.075701617 0.86518431 0.023302902
0.040970758 -0.15624318 0.0054193567 -0.49789616 -0.066754602 0.865246 0.02410789
0.040485572 -0.15624177 0.0051363478 -0.49825084 -0.056931637 0.86587977 0.025621561
0.039989881 -0.15624154 0.0048589185 -0.4988575 -0.047842477 0.86626846 0.027409047
0.039488226 -0.15623942 0.004583546 -0.49731025 -0.041084111 0.8677941 0.029071607
0.039037514 -0.1562303 0.0043491297 -0.49538881 -0.033378344 0.86956078 0.031004172
0.038460452 -0.15622818 0.0040806043 -0.49516618 -0.027059501 0.87094086 0.033689789
0.037944764 -0.15622364 0.0038302417 -0.49341959 -0.018756645 0.87310225 0.035314746
0.037414081 -0.15621813 0.0035975021 -0.49006376 -0.01060223 0.87669343 0.037849437
0.03682771 -0.1562245 0.0033460902 -0.48806918 0.0019950746 0.88030034 0.040421374
0.036298603 -0.15621854 0.0031205367 -0.48777741 0.019092206 0.88478827 0.043328281
0.035765171 -0.1562143 0.0029028743 -0.49003127 0.040536594 0.88946635 0.046181981
0.035175461 -0.15622813 0.002669238 -0.49350411 0.065938875 0.89572102 0.048636258
0.03464615 -0.15622734 0.0024535155 -0.49954292 0.096195139 0.90329069 0.049919214
0.034071211 -0.15624732 0.0022070212 -0.50878876 0.12995374 0.91180277 0.051959541
0.033499237 -0.15627438 0.0019617556 -0.51943225 0.1682502 0.92329091 0.05433137
0.033028465 -0.15625648 0.0017591227 -0.53429931 0.21407847 0.93349946 0.055821117
0.032471959 -0.1562831 0.0014883587 -0.55157518 0.25974026 0.94881225 0.057243127
0.031967279 -0.15628344 0.001230455 -0.56997687 0.30813447 0.96305472 0.058186468
0.031468462 -0.15628012 0.00095906842 -0.58691823 0.35430825 0.97838098 0.059740398
0.030968711 -0.15627655 0.00068854477 -0.60582429 0.40441483 0.99009496 0.060668126
0.03047608 -0.15626897 0.00040064455 -0.62438697 0.45352337 1.0050672 0.061621699
0.029984223 -0.15625931 0.00011029856 -0.64507753 0.50610793 1.0218046 0.062533997
0.029448904 -0.15628211 -0.00020581589 -0.66470999 0.54698604 1.0349431 0.0627257
0.0289161 -0.15630618 -0.00052847748 -0.68440711 0.58925766 1.0556161 0.063806318
0.028483922 -0.15624635 -0.00083312107 -0.70373607 0.63884771 1.0591333 0.063427359
0.027954306 -0.15626708 -0.0011657448 -0.72636324 0.68095595 1.075785 0.062752806
0.027426697 -0.15628774 -0.0015034042 -0.75146198 0.72245312 1.0981259 0.062836021
0.026956778 -0.15625736 -0.0018478755 -0.77744412 0.77347863 1.1140554 0.063009687
0.026433865 -0.15627609 -0.0021964249 -0.80226642 0.80291182 1.1411628 0.062277868
0.02591295 -0.15629299 -0.0025532541 -0.83025175 0.84054542 1.1591976 0.060295921
0.025511404 -0.15619381 -0.0029239925 -0.86041802 0.90078974 1.1719068 0.06028026
0.024802117 -0.15641673 -0.0032368356 -0.86895883 0.81227666 1.2055089 0.0586707
0.024412589 -0.15628706 -0.003640767 -0.9114573 0.9001022 1.2238994 0.057529759
0.023812005 -0.15640743 -0.0039478717 -0.92213815 0.83582789 1.2359773 0.056169227
0.023094041 -0.15667747 -0.0042592897 -0.92570341 0.76159662 1.228102 0.05380163
0.07745178 -0.15702553 -0.014111442 1.2855077 -0.2066523 0.20198424 0.016106935
0.076668143 -0.15664458 -0.0098902155 1.3141036 -0.4866198 0.36192167 0.028567819
0.076280266 -0.15697625 -0.0089085549 1.2577752 -0.61277157 0.40899315 0.037014522
0.07573162 -0.15678674 -0.0071323183 1.1446093 -0.696935 0.45568597 0.046605114
0.075297147 -0.15716261 -0.0066740741 1.0241756 -0.72069699 0.46450618 0.047234304
0.074785084 -0.15713714 -0.0056151957 0.89334077 -0.75257272 0.47987476 0.047336675
0.0742869 -0.15716673 -0.0047972742 0.76442707 -0.77123523 0.48717302 0.050244056
0.073750593 -0.15694092 -0.0037045672 0.63994235 -0.81435084 0.50458872 0.048657916
0.073247164 -0.15689518 -0.0030565343 0.51250148 -0.83422512 0.51099592 0.049379013
0.07274434 -0.1567935 -0.0024344411 0.38587028 -0.84970438 0.51278806 0.051104315
0.07224264 -0.15669164 -0.0019477592 0.25669485 -0.85139477 0.52285975 0.054896832
0.071747407 -0.1567187 -0.001800148 0.11941664 -0.85693586 0.52319086 0.054486249
0.07125137 -0.15668292 -0.0016841025 -0.011541843 -0.85646707 0.52604455 0.053341754
0.070751235 -0.15677273 -0.0019104151 -0.14302628 -0.8508938 0.53408504 0.051095702
0.070256501 -0.1567471 -0.0020588995 -0.27075151 -0.84187323 0.536443 0.047741592
0.069761485 -0.15665613 -0.0022379421 -0.40242755 -0.83458239 0.53799534 0.046961337
0.069255911 -0.15684038 -0.0029524697 -0.52178049 -0.81669205 0.54289514 0.043685656
0.068751782 -0.15690489 -0.0035886576 -0.64328879 -0.80835915 0.54291272 0.04061744
0.068263188 -0.15671718 -0.0039553652 -0.77225655 -0.79677486 0.54680675 0.039772831
0.067753457 -0.15687004 -0.0049469792 -0.88487893 -0.78298426 0.53960997 0.037089128
0.067238495 -0.15702918 -0.0060690888 -0.99407661 -0.76534897 0.52982986 0.034009125
0.066757634 -0.15681313 -0.0067178514 -1.1105313 -0.75034261 0.52767271 0.033112906
0.066235796 -0.15698619 -0.0080992701 -1.2044916 -0.71898592 0.50572366 0.02671162
0.059236672 -0.1570296 0.0064698188 0.69825464 -0.86184931 0.38285097 0.012985213
0.058781028 -0.15719891 0.006896073 0.64790446 -0.87351125 0.41553399 0.015304222
0.058278892 -0.15723109 0.0075631961 0.5734387 -0.88544136 0.46404555 0.018903285
0.05775338 -0.15713094 0.0083188284 0.48670977 -0.87983644 0.5170415 0.022149822
0.057259638 -0.15719277 0.0086466325 0.43306294 -0.8689189 0.55446064 0.024706574
0.056757379 -0.15722449 0.0089419549 0.37963247 -0.85665047 0.59063709 0.026466878
0.056250285 -0.15714194 0.0093261469 0.31039315 -0.84415537 0.62160939 0.029301621
0.055749025 -0.15717721 0.0095010381 0.26840708 -0.82289696 0.65260327 0.031134572
0.055249278 -0.1571493 0.0097077023 0.21986751 -0.79743576 0.681615 0.032808773
0.054753538 -0.1571067 0.009887225 0.17272887 -0.7707296 0.7083391 0.034317397
0.054249737 -0.15714374 0.0099458732 0.1357576 -0.74526942 0.7340042 0.035925474
0.053744327 -0.15717049 0.0099914847 0.096965827 -0.71687776 0.75581419 0.037510164
0.053253513 -0.1571302 0.010046101 0.049343575 -0.69127554 0.7722348 0.039894644
0.052754063 -0.15713079 0.010046327 0.010868544 -0.66115183 0.79102051 0.040927351
0.052256078 -0.15712614 0.010036938 -0.028358135 -0.62753981 0.80715346 0.039848648
0.05176381 -0.1571084 0.010001556 -0.065909483 -0.59650248 0.82156873 0.040447604
0.05127573 -0.15708508 0.0099526336 -0.10174774 -0.56496763 0.83429074 0.040777553
0.050769728 -0.15710129 0.0098582748 -0.13250121 -0.53229004 0.84699577 0.040256582
0.050268464 -0.15710464 0.0097420895 -0.16374168 -0.50261056 0.85615098 0.040298797
0.049744423 -0.15714344 0.0095829796 -0.19193386 -0.47390389 0.86409134 0.040315166
0.049280111 -0.1570885 0.009457102 -0.22201182 -0.44451031 0.87065494 0.03820926
0.048759747 -0.15711574 0.0092761638 -0.24758941 -0.41608655 0.87659848 0.036619078
0.048307106 -0.15706012 0.0091346167 -0.27543589 -0.38895744 0.88006032 0.035040058
0.047798038 -0.15707296 0.0089197829 -0.29972795 -0.3636623 0.88257957 0.033017561
0.047285549 -0.15708458 0.0087056626 -0.32394332 -0.33768097 0.8839345 0.031257544
0.046781097 -0.15708904 0.00846883 -0.34512639 -0.3109324 0.8857311 0.028959392
0.046235427 -0.15711804 0.0082007926 -0.36384827 -0.28631407 0.886406 0.028046925
0.045645952 -0.1571673 0.0078967791 -0.3806276 -0.2618151 0.88690794 0.027006414
0.045049056 -0.15720777 0.0075962627 -0.39792103 -0.23802778 0.88600373 0.026522942
0.044407547 -0.15726051 0.0072568655 -0.41408816 -0.21685839 0.88405412 0.026621334
0.043859225 -0.15725507 0.00695174 -0.42923039 -0.19570923 0.8817873 0.02547559
0.043303516 -0.1572496 0.006635122 -0.44437638 -0.17571442 0.87850261 0.024547638
0.04285242 -0.1572106 0.0063792272 -0.45605829 -0.16019683 0.8754977 0.024295602
0.042356726 -0.15719397 0.0060904026 -0.46470171 -0.14602938 0.87350684 0.023670385
0.04196066 -0.15714517 0.0058749802 -0.47361043 -0.13258296 0.87080377 0.024037501
0.041634988 -0.15709074 0.0056800577 -0.47919467 -0.12210067 0.86929023 0.023354191
0.04136847 -0.15703036 0.0055217738 -0.48266247 -0.11408893 0.8684662 0.023270803
0.040992312 -0.15700056 0.0052976119 -0.48579973 -0.10646933 0.86772114 0.023716856
0.040613193 -0.15697408 0.0050806995 -0.48794958 -0.099349819 0.86740011 0.024519449
0.040175818 -0.15696181 0.0048309574 -0.48807067 -0.092350684 0.86813837 0.025944831
0.0397311 -0.15695162 0.0045982567 -0.4894776 -0.086665913 0.86796468 0.027560454
0.039285354 -0.15694068 0.0043556034 -0.48733595 -0.081586584 0.86971295 0.029314961
0.038832422 -0.15693009 0.0041306741 -0.48675069 -0.078140408 0.87043637 0.031430744
0.038368717 -0.15691642 0.0039201528 -0.48574066 -0.076309957 0.87131453 0.033641435
0.037792522 -0.1569199 0.0036360207 -0.48167685 -0.072692558 0.87423843 0.036061976
0.037324186 -0.15689924 0.0034203227 -0.4779695 -0.067344554 0.87738484 0.038096774
0.036794111 -0.15689003 0.0031945158 -0.47612247 -0.060089353 0.88014013 0.040473662
0.036262598 -0.15688311 0.0029658254 -0.4735997 -0.051058546 0.88366944 0.042875182
0.035723023 -0.15687451 0.0027520112 -0.47209081 -0.03844706 0.8881107 0.045412511
0.035127852 -0.15688239 0.002522245 -0.47127393 -0.025623847 0.89378226 0.047698911
0.034582246 -0.15688193 0.0023252955 -0.4723652 -0.0048821927 0.90023744 0.049576025
0.034042139 -0.15687647 0.0021228949 -0.47902375 0.023617027 0.90907085 0.050919473
0.033503029 -0.1568767 0.00192553 -0.48777369 0.055261198 0.91884267 0.05301163
0.032922283 -0.15690196 0.0016907306 -0.498478 0.089571215 0.93254298 0.054972596
0.032397617 -0.15690646 0.0014699355 -0.51150405 0.12754004 0.94500393 0.056201003
0.031880911 -0.15690681 0.001234859 -0.52709264 0.16857699 0.9592393 0.057434741
0.031350594 -0.15692341 0.0010360552 -0.54532111 0.21795979 0.97026056 0.058764294
0.030839741 -0.15692531 0.00079287885 -0.56565291 0.26608032 0.98564041 0.059337012
0.030335123 -0.15692252 0.00053292664 -0.58305359 0.30824855 0.99888402 0.06029138
0.029882487 -0.15687841 0.00027894397 -0.60238886 0.35803092 1.0122104 0.062085111
0.02933521 -0.15691334 -5.4074917e-006 -0.62176788 0.39898634 1.0221416 0.061856739
0.02880043 -0.15693353 -0.00032578668 -0.6404022 0.43192342 1.0464829 0.06163818
0.02831001 -0.15692112 -0.00061780319 -0.66075873 0.47299275 1.0583532 0.061958395
0.027820325 -0.15690814 -0.00090994791 -0.6836645 0.52171427 1.0676632 0.061253138
0.027291751 -0.15692621 -0.0012462551 -0.70509356 0.54565722 1.0899481 0.061521459
0.026813088 -0.15689911 -0.0015683291 -0.72970462 0.58164793 1.1116449 0.060951114
0.026235186 -0.15697424 -0.001917647 -0.74381059 0.55919081 1.1415901 0.059027269
0.025760818 -0.15694128 -0.0022491072 -0.77060819 0.59302455 1.1569191 0.058505476
0.025286999 -0.15690576 -0.0025815205 -0.79661959 0.62575293 1.173304 0.057435069
0.024700433 -0.15700519 -0.0029154872 -0.81278032 0.60618043 1.1855868 0.054735698
0.024233459 -0.15695988 -0.0032640197 -0.83828783 0.63639659 1.1961141 0.054293681
0.02364766 -0.15706491 -0.0036035513 -0.85092944 0.61550784 1.1989585 0.052263726
0.023068203 -0.15716234 -0.0039726989 -0.87267572 0.60352314 1.1997612 0.049583722
0.022610981 -0.15710244 -0.0043413006 -0.9006902 0.63292825 1.2080562 0.04864594
0.022087693 -0.1571271 -0.0047030863 -0.9149642 0.62166303 1.205786 0.047972176
0.021243587 -0.15761356 -0.0050292299 -0.88259864 0.44604602 1.1573005 0.044457003
0.07756798 -0.15759723 -0.015409383 1.2697061 -0.19951336 0.18573926 0.014746949
0.077048764 -0.15763462 -0.012710064 1.2559003 -0.35598561 0.27829289 0.023877697
0.076443829 -0.15742804 -0.010140087 1.2477202 -0.55224669 0.38432968 0.031773314
0.075983837 -0.15753271 -0.008875533 1.1799397 -0.6685065 0.43411645 0.039514001
0.075485669 -0.15754503 -0.0076638185 1.056708 -0.71167004 0.45818886 0.042143404
0.075002626 -0.15764964 -0.0068039251 0.93070847 -0.73918951 0.46940136 0.045109514
0.074507385 -0.1576927 -0.0059794029 0.80834579 -0.76387644 0.47966212 0.048384767
0.074018613 -0.15778887 -0.0053940271 0.68279862 -0.78767157 0.49112356 0.046524409
0.073491313 -0.15758398 -0.004425087 0.55936402 -0.8098157 0.50473064 0.045156118
0.073000878 -0.15768124 -0.0041067814 0.43987408 -0.83242136 0.51168144 0.046008751
0.072492816 -0.15754203 -0.0035072351 0.31328633 -0.84455842 0.51607591 0.045713913
0.071990468 -0.15747426 -0.0031401226 0.18344335 -0.8495242 0.52094221 0.047607332
0.071491227 -0.15740529 -0.0029060231 0.057284217 -0.85370034 0.52505529 0.047785293
0.070996493 -0.15753137 -0.0031108512 -0.065351062 -0.85402012 0.53042823 0.04648548
0.070493802 -0.15734807 -0.0029355404 -0.19842263 -0.85260165 0.53711963 0.047753725
0.06999892 -0.15755406 -0.0035014485 -0.31747904 -0.85134262 0.53829813 0.045127489
0.069499575 -0.15757522 -0.0038925756 -0.44069991 -0.84968001 0.54020905 0.042986084
0.069000423 -0.15754777 -0.0043094582 -0.56157619 -0.84305513 0.54313803 0.042178489
0.068502046 -0.15739942 -0.0046551581 -0.68610162 -0.83737236 0.54730332 0.041727856
0.068001397 -0.15759535 -0.0056260754 -0.7908603 -0.82706535 0.53983676 0.03832572
0.067498915 -0.15766954 -0.006525801 -0.90138239 -0.81794679 0.53704643 0.03657721
0.066999458 -0.15763737 -0.0073464974 -1.0068297 -0.79943085 0.53030878 0.032005332
0.066502616 -0.15758912 -0.00831086 -1.1167961 -0.75372601 0.50825554 0.028788712
0.066036798 -0.15736252 -0.009102419 -1.2168134 -0.70074105 0.48486778 0.02426981
0.058936842 -0.1575994 0.0058096321 0.69461948 -0.85229409 0.37277681 0.010299179
0.058488607 -0.15776409 0.0062182741 0.65345508 -0.87159592 0.4011195 0.012965586
0.057995357 -0.1577969 0.0068734428 0.59290874 -0.88130891 0.44777417 0.016145164
0.057500213 -0.15782715 0.0074043563 0.53024644 -0.87688941 0.49475291 0.018222507
0.057004549 -0.15786386 0.0078223702 0.47503239 -0.86739022 0.53490752 0.021047074
0.056507763 -0.15791313 0.008136603 0.42644283 -0.8569029 0.57317287 0.022897804
0.056002323 -0.15789363 0.0084858732 0.3738133 -0.84065646 0.61268848 0.025486395
0.055500299 -0.15789843 0.0087412382 0.32430884 -0.82122999 0.64453208 0.027249971
0.054998688 -0.15788646 0.0089731589 0.27835327 -0.79951769 0.67687756 0.029273761
0.054496519 -0.15790215 0.0091228401 0.23229928 -0.77523923 0.70222914 0.030372882
0.053994521 -0.15790334 0.0092506679 0.18609956 -0.75242817 0.7253623 0.03271918
0.053494632 -0.15789314 0.0093588158 0.14204305 -0.72559315 0.74991679 0.034267161
0.05299877 -0.15786956 0.0094435345 0.097594209 -0.69665903 0.77098387 0.035359893
0.052495863 -0.15787946 0.0094613647 0.056260861 -0.66792226 0.78966039 0.036598764
0.051995415 -0.15787856 0.0094607724 0.016034929 -0.6384728 0.80663735 0.036800679
0.051515311 -0.15782361 0.0094790291 -0.026552629 -0.60682368 0.82058555 0.03658304
0.051004484 -0.1578528 0.009412108 -0.06164366 -0.5770849 0.83390057 0.036582567
0.050517671 -0.1578248 0.0093548279 -0.097446784 -0.547584 0.84508282 0.037170507
0.050012168 -0.15783748 0.0092555583 -0.12894265 -0.51740158 0.85565245 0.036654301
0.049510717 -0.15783989 0.0091384221 -0.16124265 -0.48983896 0.86364031 0.036109451
0.04904028 -0.15779452 0.0090343114 -0.19260274 -0.46148878 0.87047964 0.035540674
0.048548874 -0.15778424 0.0088844355 -0.22154847 -0.43352601 0.87574422 0.03399979
0.048063774 -0.15777054 0.008722526 -0.24860463 -0.4074859 0.88011724 0.032400951
0.047550406 -0.15779072 0.0085228095 -0.27420598 -0.38311863 0.88297045 0.031526186
0.047039431 -0.15780428 0.0083112232 -0.29805022 -0.35912901 0.88513446 0.03005985
0.046566922 -0.15777946 0.0081157582 -0.31912667 -0.33431041 0.88708335 0.028828295
0.046021398 -0.15781806 0.0078573767 -0.34000841 -0.30936295 0.88828087 0.026735149
0.045475729 -0.15784752 0.0075888177 -0.35827094 -0.28584236 0.8888436 0.02582996
0.04488603 -0.15789825 0.0072886329 -0.37668335 -0.26458648 0.88775629 0.025290452
0.044245653 -0.15796429 0.0069589121 -0.39589068 -0.2435648 0.88540876 0.025208957
0.043644298 -0.15799589 0.0066409498 -0.4125599 -0.22475728 0.88278008 0.025808748
0.043031409 -0.15802154 0.0063006855 -0.43015295 -0.20540994 0.87909722 0.024866242
0.04252566 -0.15799855 0.006013047 -0.44351774 -0.18917967 0.87610793 0.02424584
0.041964233 -0.15799968 0.0057059955 -0.45473087 -0.17490323 0.87333941 0.02452011
0.04151785 -0.15795739 0.0054444373 -0.46321559 -0.16258088 0.87124223 0.023916045
0.041009329 -0.15793735 0.0051644184 -0.47246486 -0.15107094 0.86831909 0.024528574
0.040618978 -0.15789311 0.0049462067 -0.47903368 -0.14325885 0.86603385 0.024828624
0.040240809 -0.15785138 0.0047241244 -0.48092106 -0.13603982 0.86615473 0.025615236
0.039915118 -0.15780234 0.0045418893 -0.48268899 -0.13020176 0.8660717 0.026640452
0.039758939 -0.15771829 0.0044586086 -0.48341164 -0.12438988 0.86651969 0.026929308
0.039378487 -0.15768397 0.0042392509 -0.48272875 -0.12235694 0.86721861 0.028193476
0.038987614 -0.15765603 0.004040671 -0.48255089 -0.11960636 0.86771065 0.029704841
0.038587239 -0.15762804 0.0038469047 -0.47992435 -0.11966474 0.86916977 0.031826857
0.038128898 -0.15761505 0.0036290255 -0.47914603 -0.11911169 0.86968726 0.033933267
0.037610915 -0.157612 0.0033786055 -0.47563341 -0.118648 0.8717171 0.036367714
0.037146907 -0.15758733 0.0031550115 -0.47112831 -0.1174628 0.87448466 0.038896937
0.036674663 -0.15755932 0.0029562954 -0.4690291 -0.11447756 0.87643629 0.040663648
0.036138024 -0.15754491 0.0027308089 -0.46404067 -0.11341511 0.87994981 0.043048747
0.03559655 -0.15753792 0.0025140494 -0.46038574 -0.10776991 0.88366324 0.045092903
0.035104647 -0.15751147 0.0023342713 -0.4578909 -0.099162705 0.88788778 0.04705175
0.034556147 -0.15749981 0.0021343171 -0.45733297 -0.087146804 0.8930214 0.049306009
0.034004327 -0.15749349 0.0019432141 -0.45841089 -0.069972999 0.89965707 0.051245384
0.033439834 -0.15749164 0.0017863621 -0.46292484 -0.046622843 0.90881747 0.052493129
0.032898393 -0.15748531 0.0015835492 -0.46853769 -0.01882286 0.92023766 0.054258138
0.032355964 -0.15748052 0.0013879527 -0.47884503 0.013993615 0.93433243 0.054920156
0.031815894 -0.15748824 0.001191868 -0.49275494 0.05145954 0.94775689 0.056531157
0.031332638 -0.15745305 0.0010018146 -0.51122248 0.097839713 0.96410143 0.056933779
0.030768296 -0.1574889 0.00074926607 -0.52661043 0.13098013 0.97946692 0.057992652
0.030248698 -0.15749191 0.00052363606 -0.54682112 0.17460915 0.99629408 0.058947615
0.029744091 -0.15748085 0.00025949831 -0.56418949 0.21129142 1.0139441 0.059546724
0.029240098 -0.15747632 8.0495374e-006 -0.58535486 0.25144523 1.0289195 0.059352249
0.02869338 -0.15750815 -0.00028685486 -0.59935457 0.27112082 1.0453382 0.059083898
0.028194694 -0.15750068 -0.00055680226 -0.61891699 0.30702356 1.0575963 0.059034422
0.027704127 -0.15748255 -0.00084414415 -0.63772845 0.33632395 1.0722855 0.059067655
0.027167501 -0.15751159 -0.0011540615 -0.65879488 0.3572377 1.0905664 0.057742853
0.026675299 -0.15749346 -0.0014450081 -0.67889982 0.38740447 1.1049135 0.057368539
0.026190447 -0.15746614 -0.0017497933 -0.70171374 0.41566235 1.1214995 0.057324052
0.025658935 -0.15749995 -0.002068128 -0.72169995 0.43372446 1.1290742 0.05663304
0.025185028 -0.15745851 -0.002390981 -0.74831796 0.45746511 1.1482091 0.054323815
0.024656273 -0.15748854 -0.0027232731 -0.76435983 0.4615936 1.1530007 0.053103261
0.024071736 -0.15758903 -0.0030669267 -0.77923137 0.45623752 1.156257 0.052285463
0.023547016 -0.15761556 -0.0034121848 -0.8003307 0.4628334 1.1617281 0.050100513
0.023025889 -0.15763927 -0.0037676098 -0.8223471 0.4761599 1.1624094 0.048014488
0.02249323 -0.15767853 -0.0040976806 -0.81834358 0.41208071 1.1535091 0.046691559
0.021972556 -0.15770283 -0.0044580498 -0.83730966 0.39804491 1.1509296 0.044239569
0.021336094 -0.15789258 -0.0048406669 -0.83960599 0.34092784 1.13205 0.041511975
0.020940719 -0.15773775 -0.0052011721 -0.87626064 0.39314261 1.1434277 0.041348334
0.020193113 -0.15809041 -0.0056210654 -0.86658216 0.30897582 1.1076928 0.037458427
0.019569229 -0.15824868 -0.0060712597 -0.88096046 0.28639746 1.0866182 0.035183668
0.077163875 -0.15817329 -0.013897008 1.240348 -0.34454358 0.26020411 0.021955432
0.07666678 -0.15815397 -0.011897976 1.2093112 -0.47288594 0.3298333 0.028698096
0.076220714 -0.15825188 -0.010638044 1.1706123 -0.58971214 0.38920668 0.035244387
0.075729132 -0.15824457 -0.0093032531 1.0957755 -0.7088933 0.44567573 0.037862349
0.075241663 -0.15831907 -0.0083250105 0.97022998 -0.73980635 0.46213534 0.038699925
0.074759603 -0.1584405 -0.0075919074 0.85116458 -0.76134813 0.47205439 0.041759197
0.074250333 -0.15839228 -0.0066778329 0.72461057 -0.78052783 0.48226303 0.043785259
0.073775984 -0.15857522 -0.0063157594 0.60377204 -0.79591691 0.48917034 0.044597287
0.073240906 -0.15833223 -0.005367096 0.47958407 -0.81626523 0.50055593 0.045658939
0.072747812 -0.15838675 -0.0050715934 0.36006662 -0.83404857 0.50816721 0.042964727
0.07223995 -0.15828469 -0.0045885816 0.24100168 -0.84302062 0.51623845 0.043793514
0.0717507 -0.15842715 -0.0046487097 0.12280045 -0.85118151 0.52011287 0.042209815
0.071243547 -0.15826648 -0.0043298653 0.0012551512 -0.85538715 0.52393675 0.040664367
0.070744023 -0.15824656 -0.0043410002 -0.12236254 -0.85667157 0.52861297 0.041098032
0.070251726 -0.15847364 -0.004893213 -0.23703003 -0.85933578 0.5289799 0.039657906
0.069748692 -0.15834719 -0.0049586953 -0.36101174 -0.85728514 0.53329867 0.039992951
0.069249824 -0.15835863 -0.0053551798 -0.47832045 -0.85127735 0.53381664 0.039055053
0.068752043 -0.15831935 -0.0057768496 -0.59148175 -0.83705205 0.53050584 0.037140973
0.068249673 -0.15841089 -0.0065340726 -0.70145339 -0.83812732 0.53211284 0.034547497
0.067751765 -0.15833132 -0.0071125473 -0.81449443 -0.82520926 0.52857071 0.032371111
0.067245729 -0.15845378 -0.0081200507 -0.92012388 -0.80905026 0.52100778 0.031314097
0.066751659 -0.15833952 -0.0088505065 -1.0244581 -0.78951979 0.51285136 0.028105143
0.066285484 -0.15805018 -0.0094089499 -1.1227268 -0.74556005 0.49509177 0.024442449
0.058220901 -0.15844749 0.0052408334 0.66841018 -0.85681784 0.37741938 0.0093309917
0.057710744 -0.15840012 0.0060961768 0.61257261 -0.87481558 0.42796442 0.013063565
0.057233673 -0.15848108 0.0065512061 0.56509572 -0.87715709 0.47196582 0.015444951
0.056744695 -0.15853475 0.006984455 0.51548684 -0.86894459 0.51221108 0.017685812
0.056248236 -0.15855892 0.0073853135 0.46420896 -0.85762912 0.55363929 0.019511046
0.055748377 -0.15855601 0.0077519552 0.416879 -0.84656847 0.59664607 0.023063239
0.055249739 -0.15857688 0.008027046 0.36844614 -0.82682431 0.62867308 0.024778919
0.054750063 -0.15858029 0.0082786893 0.32164407 -0.80617625 0.66213626 0.026311038
0.054248653 -0.15861398 0.0084519377 0.27953044 -0.78580403 0.69148391 0.028135192
0.053746484 -0.15863061 0.008603028 0.23342511 -0.75973058 0.71708214 0.029450037
0.053244781 -0.15863149 0.0087309526 0.18839851 -0.73448282 0.74321443 0.030857563
0.052746389 -0.1586159 0.0088301403 0.14219896 -0.70746267 0.76550466 0.032031614
0.052241102 -0.15863511 0.0088652596 0.099474676 -0.67957127 0.78507167 0.032994892
0.051750351 -0.15859877 0.0089227278 0.054786343 -0.64930815 0.80285078 0.033843134
0.051250987 -0.15859699 0.0089193135 0.0144752 -0.62034041 0.81877548 0.033674676
0.050756022 -0.15858401 0.0088936845 -0.02437805 -0.59134328 0.83254075 0.03392769
0.05026415 -0.15856576 0.0088565713 -0.063076921 -0.5610863 0.84337437 0.033998139
0.049777798 -0.15853959 0.0088003688 -0.098949388 -0.53185064 0.85357457 0.03408017
0.049277343 -0.15854439 0.0086853979 -0.13130885 -0.50479704 0.86241913 0.033188216
0.048805207 -0.15850349 0.0085913222 -0.16556402 -0.47801518 0.86912477 0.032067638
0.048309226 -0.15850247 0.0084603643 -0.19583555 -0.45137438 0.87449771 0.032093771
0.047823224 -0.15849052 0.0083032409 -0.22448021 -0.42570415 0.87910002 0.030527169
0.047308784 -0.15851507 0.0081113158 -0.25007689 -0.40170923 0.88284683 0.029631527
0.0468283 -0.15849887 0.0079388618 -0.27435151 -0.37703303 0.88593525 0.028249104
0.046314262 -0.15851575 0.0077324654 -0.29598281 -0.353542 0.88813764 0.027958134
0.04580377 -0.1585273 0.0075148256 -0.31769255 -0.3320283 0.88860959 0.027396612
0.045261241 -0.15856069 0.007246796 -0.3394143 -0.30802605 0.88901538 0.025380528
0.044717815 -0.15858765 0.0069719125 -0.35796991 -0.28798509 0.88828343 0.024984535
0.044124875 -0.1586404 0.0066765817 -0.37831229 -0.26912996 0.88571554 0.025193393
0.043485854 -0.15870732 0.0063246698 -0.39666584 -0.24950062 0.88341022 0.024542261
0.042875618 -0.15875229 0.0060046059 -0.41246578 -0.23420893 0.88036245 0.025071004
0.042264696 -0.15877745 0.0056544188 -0.43016797 -0.21678461 0.8763417 0.024086641
0.041703537 -0.15878028 0.005342281 -0.44331238 -0.20374377 0.87292081 0.024049385
0.041139077 -0.15878305 0.0050331214 -0.45467663 -0.19333933 0.8694402 0.024277013
0.04068549 -0.15873721 0.0047786743 -0.46367988 -0.18208326 0.86710799 0.024713658
0.04023068 -0.15870343 0.0045323735 -0.47189239 -0.17401268 0.86433011 0.025476543
0.039730866 -0.15868887 0.0042500473 -0.4771679 -0.16843136 0.86255378 0.026459908
0.039282966 -0.1586616 0.0040078787 -0.48211703 -0.16430308 0.86062169 0.028141681
0.038845494 -0.15863606 0.0037539934 -0.48457292 -0.16232434 0.85962957 0.028992234
0.038574208 -0.15856732 0.0036188983 -0.48453838 -0.16072191 0.85994679 0.030157404
0.038479477 -0.15845095 0.0035675652 -0.47966403 -0.15683144 0.86336672 0.030502265
0.038203213 -0.15837914 0.003429245 -0.47816816 -0.15800126 0.86395371 0.031352524
0.037751909 -0.15836154 0.0031981601 -0.4755846 -0.15756096 0.86546355 0.033960637
0.037340149 -0.1583253 0.0030251141 -0.47331852 -0.16214848 0.86586583 0.036545251
0.036877196 -0.15830369 0.0028006318 -0.46736908 -0.16506188 0.86854333 0.038885806
0.03646303 -0.15826502 0.0026355968 -0.46684766 -0.16507773 0.86881506 0.040983744
0.035987195 -0.15823473 0.0024264979 -0.46002245 -0.16733751 0.8720606 0.043133363
0.035447698 -0.15822001 0.0022094466 -0.45575055 -0.16829395 0.87437308 0.045358844
0.034952894 -0.15818498 0.0020261607 -0.45055792 -0.16595478 0.87816149 0.047385264
0.034402475 -0.15816221 0.0018314032 -0.44623893 -0.16258061 0.88274169 0.048941109
0.033894476 -0.15813379 0.0016712185 -0.44367611 -0.15284565 0.8880741 0.050183855
0.033327531 -0.15812963 0.0014980785 -0.44176477 -0.14068089 0.89533943 0.051851943
0.032767668 -0.15812272 0.0013187237 -0.44354826 -0.12224649 0.90461618 0.053244978
0.032257944 -0.15809304 0.0011725179 -0.44892925 -0.096768253 0.91544789 0.054359239
0.031708166 -0.15809098 0.00099507102 -0.46056238 -0.065666109 0.92875165 0.055390641
0.031163398 -0.15809973 0.00081489014 -0.47431383 -0.032952011 0.94238394 0.055456914
0.030633185 -0.15809579 0.00060815003 -0.49044085 -0.00058671355 0.95857584 0.054934241
0.030137243 -0.15806903 0.00045048818 -0.51173568 0.049918145 0.97858673 0.056694485
0.029576773 -0.1581125 0.00018709735 -0.52418643 0.07138285 0.99096936 0.057060588
0.029066561 -0.15810846 -5.3414842e-005 -0.54348326 0.10520314 1.0071959 0.057163857
0.028561275 -0.15809746 -0.00031087949 -0.55987126 0.13371292 1.0229995 0.05805226
0.028097495 -0.15805207 -0.00052842597 -0.58243334 0.17825195 1.0376209 0.057791222
0.02755294 -0.15809241 -0.0008207658 -0.59741795 0.19526722 1.0478257 0.057547841
0.027012274 -0.1581293 -0.0011151372 -0.61615431 0.21159674 1.0606629 0.056189619
0.026520621 -0.15810262 -0.0014064049 -0.63403344 0.23146549 1.0752871 0.054388255
0.026027329 -0.15808824 -0.0016853921 -0.65666896 0.26021928 1.0870821 0.054074906
0.025495632 -0.15811931 -0.0020058439 -0.67243665 0.26583031 1.0949144 0.052502908
0.025012726 -0.1580893 -0.0023100427 -0.69188493 0.28609157 1.1058794 0.051223211
0.024534164 -0.15805741 -0.002616412 -0.71576571 0.31181872 1.115364 0.050751101
0.023956737 -0.15813701 -0.0029827303 -0.71416861 0.25692767 1.1118627 0.048213154
0.023481444 -0.15809709 -0.0033022431 -0.73522443 0.27349842 1.1176726 0.047712218
0.022957815 -0.158126 -0.0036421923 -0.7495054 0.26540351 1.1147866 0.045817498
0.022380158 -0.15822987 -0.0040020747 -0.75111806 0.22615939 1.1040536 0.043183677
0.021915184 -0.15817873 -0.0043408619 -0.78347075 0.26131311 1.1096897 0.041605171
0.021345479 -0.1582762 -0.0047234618 -0.79581279 0.24298367 1.0981883 0.040315751
0.020833101 -0.15829071 -0.0050990726 -0.81903833 0.25423959 1.0950595 0.038593497
0.020201551 -0.15847594 -0.0054982738 -0.80976474 0.18530756 1.0666674 0.035769518
0.019683985 -0.15849829 -0.0058673285 -0.81799728 0.16012336 1.0534616 0.033240054
0.019013738 -0.15874679 -0.0063353772 -0.81789333 0.10751875 1.0206031 0.030267706
0.018568568 -0.15865682 -0.0067223436 -0.85391033 0.13857546 1.0235957 0.029418116
0.017857781 -0.15895902 -0.0072584744 -0.85653687 0.097240038 0.99350482 0.027126778
0.07798849 -0.15897423 -0.020316113 1.2305381 -0.10718171 0.14305276 0.0092414981
0.076845743 -0.15878868 -0.013435065 1.1905732 -0.43741184 0.29998046 0.026426475
0.076439448 -0.15894157 -0.012282634 1.145274 -0.5240187 0.34615803 0.032579273
0.07595636 -0.15893805 -0.010945521 1.1015948 -0.6433233 0.4063395 0.03779852
0.075485125 -0.15902472 -0.0099637909 1.0101832 -0.72597265 0.44509488 0.036597002
0.074981295 -0.15901072 -0.0088972887 0.88757265 -0.74852693 0.45850718 0.036857836
0.074503526 -0.15914704 -0.0082882922 0.76801246 -0.77058417 0.47088853 0.037303224
0.074014775 -0.15923151 -0.0077077085 0.64996463 -0.78978908 0.48159951 0.038527455
0.073525444 -0.15932074 -0.007258933 0.5326131 -0.80689073 0.49056274 0.040378068
0.073028013 -0.1593519 -0.0068422323 0.41065753 -0.8214218 0.49831927 0.040972177
0.07249967 -0.15914808 -0.0061425022 0.28853822 -0.83642668 0.50811517 0.041867789
0.071997069 -0.15912171 -0.0058877049 0.1716394 -0.84769648 0.51472205 0.03989711
0.071492724 -0.15905143 -0.0056560952 0.057124946 -0.85489351 0.5197714 0.039022051
0.07099802 -0.15911883 -0.0057548145 -0.058031894 -0.85939538 0.52345264 0.038737524
0.070498951 -0.15913208 -0.0058824047 -0.17599067 -0.86253935 0.5268687 0.038153592
0.069998413 -0.15909803 -0.0060341265 -0.29070956 -0.86099911 0.52878886 0.037478603
0.069499634 -0.15907083 -0.0063166218 -0.39906037 -0.8548547 0.52720964 0.035102747
0.068999916 -0.1591194 -0.0068283211 -0.51395428 -0.85388589 0.52874261 0.034027409
0.068500049 -0.15912379 -0.0073624477 -0.62479633 -0.84902179 0.52863908 0.0328339
0.067999661 -0.15914412 -0.0080215652 -0.73139 -0.83874124 0.52454865 0.030839145
0.067501672 -0.15904775 -0.0086090779 -0.84266466 -0.83532256 0.52451169 0.030356744
0.067000724 -0.15909712 -0.0095223654 -0.94060969 -0.81228364 0.51236349 0.027250547
0.066533826 -0.15879045 -0.0099566542 -1.0361502 -0.76482248 0.49306729 0.024500309
0.066053718 -0.15878874 -0.011028399 -1.1120257 -0.7041648 0.46427616 0.021905482
0.057453264 -0.15912469 0.0050301752 0.64384776 -0.86566913 0.40009433 0.010022663
0.056959063 -0.15913047 0.0056916876 0.59347135 -0.8704055 0.4439536 0.012108064
0.056487679 -0.15923589 0.0060619544 0.55685478 -0.87152189 0.48356384 0.014668757
0.055989679 -0.15923978 0.0065578492 0.50645423 -0.86512828 0.52950549 0.017145621
0.055493731 -0.15925796 0.0069512101 0.45769221 -0.85003519 0.56891429 0.019245829
0.055001665 -0.15934044 0.0071831774 0.42203358 -0.84072447 0.60555083 0.022136781
0.054499954 -0.15931748 0.0075244159 0.37141028 -0.81906414 0.6417501 0.024521042
0.054000154 -0.15931845 0.0077722836 0.32290238 -0.79669386 0.6740008 0.025575256
0.053498551 -0.15934815 0.007940718 0.27779612 -0.77379209 0.70368719 0.027335322
0.052996054 -0.15936336 0.0080902409 0.23209786 -0.74845308 0.73087394 0.02876839
0.052495193 -0.15936033 0.0082111675 0.1853478 -0.72149658 0.75617933 0.0298391
0.051998153 -0.1593429 0.008304378 0.13798885 -0.69248784 0.77751499 0.030615075
0.051493604 -0.15935935 0.0083344709 0.094816148 -0.66417271 0.79661417 0.031506553
0.051004987 -0.15931904 0.0083846999 0.049367018 -0.63342363 0.81315768 0.03211787
0.050523698 -0.15926786 0.0084087169 0.0064347894 -0.6033349 0.82791942 0.031947967
0.050030477 -0.15925753 0.0083841905 -0.032568518 -0.57490766 0.83980232 0.031823564
0.049523924 -0.15927954 0.0083014565 -0.068800136 -0.54690927 0.8503263 0.031535629
0.049042322 -0.15924804 0.0082317805 -0.10380128 -0.51990634 0.85961628 0.031157337
0.048544422 -0.15925387 0.0081154518 -0.13774192 -0.49394876 0.86747259 0.029882422
0.04807486 -0.15921204 0.0080172867 -0.16971676 -0.4681161 0.87333441 0.030146061
0.047583029 -0.15921052 0.0078809494 -0.19841892 -0.44288072 0.87893498 0.029634198
0.047064468 -0.15924302 0.007702813 -0.22438703 -0.41779095 0.88377434 0.028818365
0.046579171 -0.15922987 0.0075420411 -0.25196904 -0.39358038 0.88601243 0.02760086
0.046100393 -0.15921313 0.0073650908 -0.27586225 -0.37014061 0.88826966 0.02687717
0.045553423 -0.15926199 0.007126098 -0.29797822 -0.34899965 0.88912088 0.027070533
0.045046207 -0.15926838 0.0068984781 -0.32068732 -0.32891345 0.88857853 0.026087852
0.044543043 -0.15927128 0.0066585457 -0.34288919 -0.30831093 0.88752741 0.024949472
0.043960318 -0.15932819 0.0063532786 -0.36238784 -0.28936332 0.88603777 0.02487744
0.043368012 -0.15938284 0.0060402355 -0.38029301 -0.2728959 0.88369966 0.024751902
0.042719956 -0.15946218 0.0056813108 -0.39924175 -0.25699171 0.88009584 0.024564447
0.042058479 -0.15953219 0.0053225379 -0.41791251 -0.2419872 0.87568122 0.024655282
0.041497745 -0.15954039 0.0050050938 -0.43368044 -0.23033896 0.87115043 0.024282183
0.040876914 -0.15956803 0.0046665543 -0.44769913 -0.21893907 0.86699182 0.024739133
0.040370174 -0.15954623 0.0043749283 -0.45807144 -0.21070413 0.86361289 0.024847038
0.039860297 -0.15952842 0.0040899049 -0.46756724 -0.20524363 0.859851 0.025651943
0.039347887 -0.15951055 0.0038103764 -0.47616759 -0.19961976 0.85649639 0.026450224
0.038905811 -0.15947159 0.0035503872 -0.48208717 -0.19545798 0.85421598 0.027663197
0.038463689 -0.15944344 0.0033050724 -0.48442522 -0.19362271 0.85335737 0.029559076
0.03802596 -0.15941541 0.0030565821 -0.48557976 -0.19417036 0.85266817 0.031120792
0.037589327 -0.15939367 0.0028101776 -0.48575941 -0.20033489 0.85126978 0.033509068
0.037262678 -0.15933572 0.0026437026 -0.48318204 -0.20140688 0.85238135 0.034981981
0.036876108 -0.1592952 0.0024443679 -0.48069304 -0.20693275 0.85253435 0.036894519
0.036710884 -0.15917377 0.0023873115 -0.4755494 -0.20610149 0.85549605 0.038076431
0.036420137 -0.15908995 0.0022674482 -0.47078338 -0.21031447 0.85707885 0.038951136
0.036117256 -0.15900253 0.0021679499 -0.46660101 -0.21399085 0.8583765 0.041216299
0.035643049 -0.15897255 0.0019660941 -0.4613035 -0.21943174 0.85979223 0.043488249
0.035164181 -0.1589385 0.0017698477 -0.45523113 -0.22303975 0.86200035 0.045518149
0.034676366 -0.15890399 0.001577158 -0.44749463 -0.22804075 0.86474335 0.047108077
0.034233429 -0.15884133 0.001428497 -0.44111326 -0.22694527 0.86851555 0.048357625
0.033675715 -0.15883034 0.0012370946 -0.43469632 -0.22746028 0.87225854 0.049841281
0.033156291 -0.15877654 0.0011059047 -0.42969328 -0.22313677 0.87834734 0.05001327
0.032633286 -0.15874462 0.00096760149 -0.4273476 -0.21231192 0.88561022 0.051379688
0.032118473 -0.15871358 0.00081825134 -0.42695081 -0.19792534 0.89372408 0.052470244
0.031563822 -0.15870629 0.00064712536 -0.43292084 -0.17898738 0.9040044 0.052208278
0.031002983 -0.15871997 0.00049729593 -0.44308746 -0.15541537 0.9157306 0.052531976
0.0305035 -0.15868314 0.00034279301 -0.45605087 -0.12512015 0.92982745 0.052795045
0.029951539 -0.158693 0.00017209741 -0.47164997 -0.091478273 0.94930577 0.053469297
0.029428843 -0.15868406 -5.7386176e-005 -0.48552048 -0.068495147 0.96437669 0.05317881
0.02891097 -0.15868807 -0.00028255448 -0.50002915 -0.044591531 0.97704506 0.053393997
0.028428752 -0.15865628 -0.00046055531 -0.51922852 -0.0061313305 0.99237162 0.054831244
0.027923496 -0.15864263 -0.0007204357 -0.5326643 0.010510722 1.0031815 0.054096293
0.027377727 -0.15868187 -0.00099997781 -0.54806387 0.019194623 1.0138091 0.052136015
0.026914505 -0.15862647 -0.0012192127 -0.56888664 0.0533581 1.0274388 0.051924482
0.026373865 -0.15866908 -0.0015186707 -0.58091772 0.056795627 1.0322362 0.051208112
0.025879096 -0.15865123 -0.0017921582 -0.59688717 0.072272636 1.041726 0.050445132
0.025384054 -0.15864341 -0.0020617582 -0.61766165 0.096615911 1.0491072 0.050312862
0.024853218 -0.15866333 -0.0023912191 -0.62586123 0.081201091 1.051733 0.04769934
0.02436644 -0.1586428 -0.002680585 -0.64483845 0.10131642 1.0577955 0.047161024
0.023834342 -0.15868318 -0.0030036974 -0.65907252 0.10330119 1.0585892 0.045682333
0.023350596 -0.15864737 -0.0033090501 -0.67263013 0.10952438 1.0629727 0.044613793
0.022827746 -0.15868153 -0.0036415295 -0.69035929 0.11123081 1.0616051 0.043078586
0.022255745 -0.15878503 -0.0040065679 -0.70316666 0.097147278 1.0534562 0.039905235
0.021785069 -0.15874101 -0.0043312772 -0.72592205 0.11856221 1.0581707 0.039790142
0.021266734 -0.1587646 -0.0046876557 -0.73798037 0.1123725 1.0521681 0.037948035
0.020699123 -0.15885566 -0.005079228 -0.7370348 0.065065652 1.0308422 0.035386473
0.020133343 -0.1589506 -0.0054736477 -0.74026352 0.029396776 1.0123712 0.032293927
0.019619865 -0.15896988 -0.005849089 -0.76367182 0.049979664 1.0112319 0.031378452
0.018963058 -0.15920441 -0.0063370131 -0.7627793 0.0010854114 0.9806574 0.028421383
0.018511191 -0.15912691 -0.0067028967 -0.79653412 0.027520074 0.98212403 0.026957698
0.017960073 -0.15919894 -0.007142832 -0.81427091 0.023621647 0.96949774 0.026059167
0.017411547 -0.15926601 -0.0075896573 -0.82739675 0.0076415106 0.95060802 0.024405619
0.016722618 -0.15954122 -0.008168363 -0.83527195 -0.017053174 0.92720979 0.022544725
0.078055166 -0.15957221 -0.021344328 1.2059907 -0.12311485 0.15227763 0.0091340812
0.077861294 -0.15985794 -0.020121781 1.2081763 -0.20049998 0.1812692 0.012843356
0.077459268 -0.16002737 -0.017892325 1.1702967 -0.31288868 0.22749934 0.017339723
0.076683804 -0.15968856 -0.014169561 1.1341865 -0.48506358 0.3133221 0.028874805
0.076177165 -0.15965448 -0.012577401 1.0696822 -0.57518649 0.36144733 0.034121137
0.075706542 -0.15969168 -0.011487077 1.0122796 -0.66514271 0.40724465 0.035795376
0.075267315 -0.15993324 -0.010958291 0.93337953 -0.72496289 0.43634006 0.040976364
0.074759968 -0.15992716 -0.01002156 0.82226157 -0.77307743 0.46188861 0.035555284
0.074266694 -0.15998481 -0.0093200365 0.70310283 -0.79010683 0.47194919 0.034394495
0.073765419 -0.15998648 -0.0086493874 0.58208412 -0.8042388 0.4811224 0.036281098
0.073254906 -0.15992153 -0.0080120871 0.46263921 -0.8197071 0.49203321 0.037254762
0.072754309 -0.15992536 -0.0076075103 0.34599698 -0.8332749 0.49952501 0.037915602
0.072247431 -0.15986589 -0.0072356686 0.22871241 -0.8449446 0.50732297 0.036362357
0.071737573 -0.15977174 -0.0068837618 0.10664456 -0.85341072 0.51389706 0.038448986
0.07124237 -0.15978354 -0.0068771131 -0.00054439844 -0.85991555 0.51766318 0.035664294
0.070745289 -0.15981781 -0.0069929492 -0.11444265 -0.86481881 0.52130169 0.035773251
0.070244581 -0.15980357 -0.0071348534 -0.22986402 -0.86948705 0.52523983 0.035208452
0.069746427 -0.15981099 -0.0073989923 -0.33940843 -0.86905771 0.52654099 0.033808358
0.069252022 -0.15995246 -0.007996141 -0.4437896 -0.86740279 0.52541411 0.032553013
0.068748206 -0.15979804 -0.0082101161 -0.55718142 -0.86536151 0.52748632 0.032497644
0.068249598 -0.15984774 -0.0088557247 -0.66237724 -0.86337221 0.52662605 0.031213829
0.067753226 -0.15973964 -0.0093165422 -0.76461416 -0.8394708 0.51601487 0.027510084
0.067248873 -0.1598829 -0.010313649 -0.86145145 -0.82510453 0.5068621 0.028766138
0.066730194 -0.16002825 -0.011442695 -0.93819124 -0.78083068 0.48145542 0.025510259
0.066262089 -0.15977183 -0.011982343 -1.0156361 -0.72302127 0.45739514 0.021664137
0.065742895 -0.15985072 -0.013281742 -1.0688162 -0.65675372 0.41831458 0.016533043
0.05669361 -0.15983108 0.0047144042 0.62515086 -0.86607593 0.41634998 0.0098860543
0.056228023 -0.15994221 0.0050947666 0.59429592 -0.86921364 0.45064166 0.011689177
0.055742543 -0.1599986 0.0055550039 0.55590385 -0.8735168 0.48659021 0.013959984
0.055241853 -0.15998894 0.0060626687 0.50646871 -0.86349654 0.5335387 0.016700707
0.054750331 -0.16005035 0.0063884128 0.46936718 -0.85483015 0.57357281 0.019612949
0.054251961 -0.16008927 0.0066907932 0.42612338 -0.8392759 0.61141396 0.022227701
0.053750038 -0.16006561 0.0070299744 0.37510157 -0.81685019 0.64933646 0.024546897
0.053249933 -0.16006386 0.0072757858 0.32401431 -0.7913776 0.68254 0.025777094
0.052747514 -0.16009344 0.007445951 0.27797443 -0.76767588 0.71202511 0.027389251
0.052244954 -0.16010617 0.0075909528 0.23011845 -0.74121636 0.73784149 0.028169818
0.051744394 -0.16010025 0.0077073043 0.18190138 -0.71263933 0.76321971 0.029318402
0.051247802 -0.1600813 0.0077978927 0.13311084 -0.68158317 0.78433317 0.029962845
0.05075651 -0.16004816 0.0078623602 0.086045079 -0.65119559 0.80384946 0.030909313
0.050256271 -0.16005191 0.0078680255 0.042631522 -0.6209901 0.81917304 0.031063301
0.049760401 -0.16004317 0.0078496253 0.0017916287 -0.59288359 0.83363372 0.030543603
0.049289405 -0.15997836 0.0078415191 -0.039295912 -0.56417453 0.84624612 0.029929496
0.048785526 -0.15999658 0.0077499012 -0.07599774 -0.53730363 0.85624814 0.029653806
0.048305921 -0.15996578 0.0076781316 -0.11111993 -0.50932819 0.86524886 0.029399391
0.047806863 -0.15997404 0.0075645205 -0.14309844 -0.48291597 0.87281764 0.029130924
0.047311287 -0.1599725 0.0074330494 -0.17276911 -0.45708689 0.87863427 0.029112179
0.046821192 -0.15996665 0.0072880881 -0.20177478 -0.43308771 0.88301641 0.028410988
0.046334732 -0.15995632 0.0071340296 -0.23052558 -0.40958595 0.88563859 0.027586486
0.045855239 -0.15993983 0.0069594793 -0.25656921 -0.38645834 0.8877914 0.026607914
0.045341976 -0.15995921 0.0067580841 -0.28080299 -0.36654612 0.88811606 0.02678369
0.044833012 -0.15996949 0.0065375031 -0.30269176 -0.34670597 0.88829017 0.026800122
0.044330891 -0.15997545 0.0063010231 -0.32677665 -0.32616496 0.88729715 0.025592545
0.043831386 -0.15997775 0.006056048 -0.34871128 -0.30782479 0.88536668 0.024512962
0.043199245 -0.16007523 0.0057198158 -0.36805719 -0.29209018 0.88275349 0.024992846
0.042599566 -0.16013698 0.0054014525 -0.38855666 -0.27718934 0.87874931 0.025053125
0.041949853 -0.16022111 0.0050432114 -0.40505704 -0.26511046 0.87503248 0.025812484
0.041291222 -0.16029511 0.0046741394 -0.42349607 -0.25308961 0.86987281 0.026036583
0.040678833 -0.16032512 0.0043133474 -0.44155064 -0.24164467 0.86413407 0.025068859
0.040109143 -0.16033877 0.0039997147 -0.45509687 -0.23661442 0.85847867 0.025763836
0.039543491 -0.16033873 0.0036665106 -0.46856952 -0.22993274 0.85303873 0.025845962
0.03903807 -0.1603146 0.0033699379 -0.47841102 -0.2260561 0.84868217 0.026450571
0.03860043 -0.16027541 0.003097221 -0.4840745 -0.22554028 0.84564024 0.027089773
0.038156856 -0.16023646 0.0028469996 -0.48911017 -0.2227854 0.84360403 0.028809965
0.037659008 -0.16022883 0.0025572695 -0.49229348 -0.22661966 0.84086525 0.031187091
0.037223835 -0.16019769 0.0023042315 -0.49392068 -0.22889045 0.83943528 0.033763692
0.036793057 -0.16017351 0.0020532319 -0.49176371 -0.23635784 0.83876443 0.03572825
0.036407832 -0.16013072 0.0018578555 -0.49070996 -0.24283695 0.83757514 0.037289876
0.035977207 -0.16010445 0.0016119287 -0.48547864 -0.25245646 0.83793831 0.0398493
0.035591237 -0.16005953 0.0014195018 -0.479076 -0.26267716 0.83841467 0.041830339
0.035028208 -0.16009463 0.0011276713 -0.47141695 -0.27948755 0.83725536 0.044542093
0.034741186 -0.15998967 0.0010256716 -0.46564156 -0.28314239 0.83912843 0.045371797
0.034333326 -0.15993704 0.00085737533 -0.45430472 -0.29365358 0.84156007 0.046747658
0.033758629 -0.15997447 0.00058884348 -0.44387722 -0.31013685 0.84101057 0.048059139
