ply
format ascii 1.0
comment PCL generated
element vertex 567
property float x
property float y
property float z
property float nx
property float ny
property float nz
property float curvature
element camera 0
property float view_px
property float view_py
property float view_pz
property float x_axisx
property float x_axisy
property float x_axisz
property float y_axisx
property float y_axisy
property float y_axisz
property float z_axisx
property float z_axisy
property float z_axisz
property float focal
property float scalex
property float scaley
property float centerx
property float centery
property int viewportx
property int viewporty
property float k1
property float k2
end_header
0.073584482 -0.12231935 0.053436548 0.34125036 0.078466721 0.97097921 0.0085296454
0.073468015 -0.12247206 0.053484976 0.33222732 0.06941177 0.97648269 0.0084687741
0.048954427 -0.12175393 -0.012955187 0.21915373 -0.63823104 -0.73880386 0.0037284452
0.050159927 -0.12182835 -0.01248928 0.24402346 -0.66380417 -0.71097583 0.0031498116
0.05113057 -0.12190437 -0.01203431 0.25867626 -0.67904466 -0.6941855 0.0027580077
0.051656589 -0.12204772 -0.011687183 0.2645281 -0.69106334 -0.68232512 0.0026188886
0.053075977 -0.12205388 -0.011120681 0.2761369 -0.70909911 -0.6607303 0.0021959827
0.05404513 -0.12211712 -0.010648456 0.28268197 -0.71585608 -0.65095741 0.0018084679
0.05523324 -0.12213949 -0.010116854 0.2877928 -0.71842247 -0.64467639 0.0015178929
0.069463231 -0.12259973 -0.0092260623 0.19311026 0.0015693066 -0.98807526 0.0081386324
0.071120404 -0.12264258 -0.0090515884 0.25714555 0.044846352 -0.9690963 0.006133493
0.07316269 -0.12271897 -0.008567106 0.3230601 0.078873642 -0.94462317 0.0047002928
0.075014934 -0.12280896 -0.0079168249 0.37073287 0.097743198 -0.9239502 0.0048835366
0.076107562 -0.12284756 -0.0074560912 0.39363712 0.10791814 -0.91299212 0.0050220615
0.077300213 -0.12289694 -0.0069490629 0.4139652 0.11555494 -0.90296948 0.0050102277
0.078291744 -0.12292476 -0.0065230071 0.43117324 0.121774 -0.89402086 0.0052695922
0.078987345 -0.12292366 -0.0062139644 0.447097 0.12527187 -0.88567609 0.005687736
0.07999038 -0.1229526 -0.0057781166 0.47042134 0.12869863 -0.873155 0.0067552351
0.081180133 -0.12300549 -0.0052384073 0.5041889 0.12871081 -0.8543402 0.0083179213
0.082446285 -0.12307223 -0.0046388712 0.54788142 0.12561281 -0.82801956 0.010510015
0.083787888 -0.1231708 -0.0038596166 0.60489559 0.11668082 -0.78821033 0.012945659
0.084568016 -0.12321236 -0.0033064662 0.64046156 0.11175986 -0.76022518 0.014444556
0.085220523 -0.12324788 -0.0027535597 0.67391968 0.1066867 -0.73132217 0.015359317
0.085755475 -0.12327875 -0.0022075253 0.70267808 0.099296063 -0.70464349 0.015492471
0.086155698 -0.12328778 -0.0017633752 0.72216159 0.096347548 -0.68514252 0.015381514
0.086589739 -0.12330967 -0.001239021 0.74409658 0.090987355 -0.66200536 0.014917779
0.086904466 -0.12331194 -0.00081225554 0.76068741 0.086531542 -0.64339149 0.014453586
0.08720845 -0.12331475 -0.00037426263 0.77580696 0.08259324 -0.62566859 0.013553881
0.087542467 -0.12333114 0.00013681944 0.79379642 0.076623499 -0.60347241 0.012314552
0.087788105 -0.12332705 0.0005402253 0.80619842 0.073013164 -0.58727551 0.011333872
0.088069566 -0.12333084 0.0010009391 0.81820387 0.067497008 -0.57100677 0.010631655
0.088340193 -0.12333683 0.0014709813 0.83026844 0.062481724 -0.55391681 0.0096217906
0.088580921 -0.12333517 0.0018892577 0.83864999 0.058481336 -0.54157043 0.0090922676
0.088846877 -0.12334228 0.0023703324 0.84899622 0.053805534 -0.52566749 0.0084690694
0.089108385 -0.1233492 0.0028543463 0.8582086 0.049075238 -0.51095778 0.0079049729
0.089340307 -0.12335038 0.0032908358 0.86578381 0.044956047 -0.49840108 0.0073071131
0.089622177 -0.12336592 0.0038309197 0.87441486 0.039419495 -0.48357907 0.0068144784
0.089855336 -0.12336707 0.0042728069 0.88108033 0.036425643 -0.47157446 0.0065898318
0.09013322 -0.12338299 0.004814866 0.88919097 0.031208308 -0.45651409 0.0060719354
0.090386532 -0.12339151 0.0053079701 0.89574885 0.027268697 -0.44377345 0.0058257747
0.090656281 -0.12340853 0.0058484524 0.90275961 0.02251 -0.42961499 0.0055741691
0.090917915 -0.1234237 0.0063895416 0.9095158 0.017268049 -0.41539651 0.0052197482
0.091213591 -0.12344547 0.0070095253 0.91686541 0.012168138 -0.39908198 0.0050229598
0.091464467 -0.12345823 0.0075454148 0.92298871 0.0090741161 -0.38477027 0.0050971215
0.091688834 -0.12346594 0.0080440193 0.92867452 0.0069271 -0.3708674 0.0051989714
0.091902971 -0.1234746 0.0085465731 0.93425626 0.0046886634 -0.35661423 0.0052658021
0.092109919 -0.12348161 0.0090510007 0.93977839 0.0038668299 -0.34179592 0.0055177249
0.092292413 -0.1234883 0.0095245475 0.94493383 0.0029975474 -0.32728276 0.0057373377
0.092475884 -0.12349633 0.01003715 0.95042545 0.0021337033 -0.31095734 0.0059071812
0.092640311 -0.12350126 0.010518976 0.95539057 0.0021804911 -0.29535457 0.0061378614
0.092795402 -0.12350713 0.011005376 0.96029818 0.0024171271 -0.27898237 0.0063583567
0.092939921 -0.12351303 0.011496177 0.9649803 0.003281831 -0.2623111 0.0065708677
0.093074851 -0.12351894 0.011990526 0.969432 0.0038233004 -0.24534042 0.0067259795
0.093202189 -0.12352385 0.012487475 0.9736222 0.0045279725 -0.22813812 0.006920367
0.0933199 -0.1235298 0.012987014 0.97753221 0.005214808 -0.21074568 0.0070686094
0.093428887 -0.12353478 0.013488605 0.98118329 0.0062774327 -0.19300623 0.0072844308
0.093529016 -0.12354088 0.013991367 0.98451501 0.007022657 -0.1751785 0.0073959865
0.093621328 -0.123543 0.014477023 0.98740011 0.008652132 -0.15801774 0.0077294796
0.093707681 -0.12354819 0.014982805 0.99013662 0.010126021 -0.13975865 0.0080008786
0.093785979 -0.12355349 0.015488511 0.99255133 0.011737248 -0.12129529 0.0082916589
0.093856387 -0.12355996 0.015993658 0.994596 0.0134644 -0.10303295 0.0085128089
0.093919881 -0.12356221 0.016488461 0.99627697 0.015833188 -0.084874541 0.0089256056
0.093977705 -0.12356784 0.016993251 0.9976564 0.018243494 -0.066181339 0.0093442295
0.094026096 -0.12357483 0.017496388 0.99868089 0.021095803 -0.047169074 0.0098372037
0.094064876 -0.12357725 0.01799437 0.99932897 0.024271168 -0.028254764 0.010305763
0.094094403 -0.12358403 0.018494844 0.99960691 0.027224887 -0.009275795 0.010745221
0.094114088 -0.1235869 0.018993177 0.99950254 0.030737024 0.0095515521 0.011286817
0.094119862 -0.12359007 0.019491935 0.99903387 0.034372076 0.027982108 0.011732811
0.09411262 -0.12359241 0.019990405 0.99824327 0.037885386 0.046118975 0.012003016
0.094085775 -0.12359074 0.020494474 0.99715012 0.041885115 0.063327685 0.012130406
0.094047174 -0.12359412 0.020991633 0.99584335 0.045351431 0.079572514 0.012308084
0.093994938 -0.12359934 0.021486402 0.99438345 0.048582271 0.094476022 0.012535637
0.093927056 -0.12360536 0.021978395 0.99291575 0.051057767 0.10780435 0.012476052
0.093845144 -0.12361091 0.022467773 0.99153882 0.052951269 0.1191898 0.012376269
0.093746573 -0.12360926 0.022967633 0.99026227 0.055329327 0.12870277 0.01262039
0.093639366 -0.1236101 0.023467105 0.98918158 0.056566991 0.13648558 0.012845545
0.09352465 -0.12360916 0.023965992 0.98831779 0.057912033 0.1422862 0.013250032
0.093403749 -0.12360863 0.024464134 0.98775077 0.058575541 0.14650808 0.013410475
0.093273222 -0.12360157 0.024977017 0.98758566 0.059140503 0.14776188 0.014072302
0.093147933 -0.12360202 0.025475489 0.98778182 0.058104545 0.14672697 0.014846939
0.093021698 -0.12359525 0.025989257 0.9882403 0.057180446 0.14391974 0.015660156
0.092903234 -0.1235943 0.026488641 0.98905164 0.055024438 0.13920921 0.016321441
0.09278366 -0.12358816 0.027002405 0.9900642 0.052389693 0.13313605 0.017157206
0.092679709 -0.12358832 0.027503025 0.99134284 0.048569903 0.12500423 0.017853398
0.092591941 -0.12358127 0.028018367 0.99239212 0.046116587 0.11588028 0.019590128
0.092510663 -0.12358022 0.028519724 0.99372452 0.041327588 0.10551024 0.020268137
0.092443727 -0.1235799 0.029021628 0.99498802 0.036314461 0.094482183 0.021116117
0.092387848 -0.12358124 0.029522995 0.99615228 0.029907309 0.083494157 0.021425843
0.092350133 -0.12359004 0.03000888 0.99722898 0.022524578 0.072078064 0.021117356
0.092324406 -0.12359352 0.030505389 0.9980852 0.01529322 0.061352178 0.020828692
0.092311516 -0.12359778 0.031003222 0.99875879 0.0074267834 0.051089779 0.0201148
0.092315368 -0.12360156 0.031502001 0.99916065 -0.00024294668 0.042393379 0.019473193
0.092325822 -0.12360499 0.03200179 0.99944717 -0.0082131159 0.034643624 0.018361285
0.092347518 -0.12360995 0.032497413 0.99955499 -0.015783206 0.028755749 0.017409176
0.092379965 -0.12361322 0.032998387 0.99951667 -0.022764621 0.024903769 0.016625077
0.092413977 -0.12361719 0.033495396 0.99935329 -0.030418124 0.023019519 0.015564129
0.092454702 -0.12362179 0.0339971 0.99909544 -0.03749894 0.024680311 0.014663544
0.092493407 -0.12362693 0.034499213 0.99873459 -0.043734238 0.029035889 0.014120881
0.092529342 -0.12362899 0.034996122 0.99822032 -0.050226845 0.035755888 0.013524345
0.092567854 -0.12363434 0.035498936 0.99746495 -0.05557353 0.046852261 0.013295098
0.092600942 -0.12364258 0.036010444 0.99646211 -0.059438214 0.060708251 0.013923148
0.09262301 -0.12364295 0.036505457 0.99502724 -0.064428858 0.076582231 0.014139847
0.092630103 -0.1236471 0.037008267 0.99314457 -0.068255484 0.095117807 0.014753311
0.0926276 -0.12364959 0.037510976 0.99052161 -0.071097419 0.11759973 0.015615863
0.092610903 -0.1236467 0.037995383 0.9872449 -0.074701846 0.14068711 0.016178431
0.092578426 -0.12364121 0.038472053 0.98324537 -0.077343956 0.16517493 0.016867453
0.092525184 -0.12364596 0.038979936 0.97799277 -0.077850938 0.19382571 0.01784849
0.092462674 -0.12364371 0.039464131 0.97161466 -0.07937099 0.22315787 0.01896634
0.092373237 -0.12364431 0.039965779 0.96381694 -0.079617038 0.25487301 0.019944713
0.092263013 -0.12364469 0.040462997 0.95488203 -0.078720644 0.28688082 0.020850962
0.092129402 -0.12364164 0.040953171 0.94468051 -0.077576391 0.31956592 0.021246817
0.091971703 -0.12363768 0.041432206 0.93350255 -0.075623654 0.35155311 0.021451246
0.091778412 -0.12363784 0.041937653 0.92053807 -0.072982624 0.38452482 0.021725627
0.091557898 -0.12363537 0.042435035 0.90576112 -0.070039935 0.41898733 0.021587327
0.091314532 -0.12363079 0.042922292 0.88925153 -0.065495148 0.45449546 0.021047933
0.091019072 -0.12362871 0.043438241 0.8701492 -0.060199209 0.49139366 0.020545533
0.090661176 -0.12362791 0.043985855 0.84768265 -0.05174946 0.53090185 0.019693723
0.090306684 -0.12362079 0.044476539 0.825755 -0.043980096 0.56590784 0.018868355
0.089888439 -0.12361465 0.044998519 0.80103612 -0.034937724 0.60185587 0.017863721
0.089488827 -0.12360343 0.045456398 0.77755368 -0.026778968 0.63300276 0.017140934
0.088968433 -0.12359567 0.04598869 0.74710852 -0.0142093 0.66917884 0.016850701
0.088367157 -0.12358423 0.046556357 0.70923406 0.0034520954 0.70959336 0.017050659
0.087853387 -0.12357131 0.047004886 0.67573857 0.020173348 0.7408731 0.018157758
0.0870919 -0.12354297 0.047590133 0.63449711 0.043613467 0.77446759 0.018905191
0.086522467 -0.12352809 0.047989998 0.60593015 0.05942316 0.79571575 0.018264156
0.084919207 -0.12342085 0.048942678 0.54285383 0.10146619 0.83464712 0.016506886
0.083156638 -0.12328821 0.049786936 0.48274979 0.13872045 0.8653518 0.013774687
0.082209952 -0.12326584 0.050148129 0.461362 0.1575778 0.87363583 0.011596592
0.080135882 -0.12311352 0.050891787 0.42941648 0.20786501 0.87975204 0.0095600626
0.079314359 -0.12311437 0.051202215 0.42531911 0.22163752 0.87853783 0.0086767757
0.078410856 -0.1231015 0.051567007 0.4284488 0.23427087 0.87368387 0.0081623141
0.077817649 -0.12313773 0.05182343 0.432688 0.23457797 0.87166744 0.0078130122
0.077030316 -0.12314723 0.052169219 0.44049737 0.22888152 0.86936313 0.0075643868
0.076167032 -0.12313146 0.052598905 0.3935681 0.17489776 0.90813595 0.0060576992
0.075557716 -0.12319336 0.052840259 0.34911582 0.12954105 0.94483048 0.0062669609
0.073693566 -0.12309601 0.053438708 0.31710723 0.060739774 0.9826746 0.0077271359
0.0074812267 -0.12023989 -0.013579155 0.084744863 -0.64209872 -0.76321965 0.0023934152
0.049645808 -0.12242144 -0.012127605 0.25809923 -0.67679125 -0.6961928 0.0036781493
0.05039192 -0.12252933 -0.011725552 0.27438244 -0.696428 -0.6744343 0.0033425516
0.05124395 -0.12260207 -0.011272864 0.28075022 -0.71084625 -0.66067398 0.0029302696
0.052318435 -0.12263966 -0.010767338 0.28534228 -0.7247926 -0.64374369 0.0022870493
0.052729707 -0.12278442 -0.010417553 0.28906873 -0.73454326 -0.63213164 0.0020444896
0.068485491 -0.12325501 -0.0093882522 0.15219456 -0.020891028 -0.99758017 0.0071869297
0.07016439 -0.12329385 -0.0093246689 0.21617565 0.030880939 -0.97991836 0.0054306947
0.072248392 -0.12335944 -0.0089485534 0.29423729 0.063507847 -0.95542723 0.0046058646
0.074130982 -0.12343893 -0.0083536208 0.3449454 0.079549871 -0.93568963 0.004713261
0.075643346 -0.12350944 -0.0077476646 0.38140574 0.089870729 -0.92010719 0.0047769323
0.076939784 -0.12356541 -0.0072044088 0.40471277 0.096670866 -0.90934199 0.0050006616
0.07773342 -0.12357564 -0.0068697431 0.41811103 0.099480279 -0.90293813 0.0053004161
0.0787277 -0.12360598 -0.0064372127 0.43963596 0.10231416 -0.89233941 0.005957054
0.079530142 -0.12361944 -0.0060856505 0.45778421 0.10247917 -0.88320792 0.0065473621
0.080637164 -0.12366179 -0.0056014517 0.48858356 0.10074455 -0.86712354 0.0078897802
0.082106553 -0.12374031 -0.0049309218 0.53519553 0.095283307 -0.84014714 0.010400192
0.083319359 -0.12380635 -0.0042783148 0.58340263 0.089458406 -0.80799752 0.012698131
0.084274657 -0.12386217 -0.0036321525 0.62851685 0.082157612 -0.77378547 0.01434877
0.084944732 -0.12389565 -0.0030895597 0.6633994 0.076782487 -0.74441123 0.015262721
0.08550328 -0.12392227 -0.0025616225 0.69154161 0.072154708 -0.71882379 0.015924636
0.085963622 -0.12394266 -0.0020578862 0.71420813 0.0680902 -0.69678527 0.015747514
0.086349823 -0.12395312 -0.0015941653 0.73432523 0.065056995 -0.67592329 0.01511844
0.086768851 -0.12397666 -0.0010531998 0.75695062 0.058909606 -0.65091813 0.014330066
0.087074421 -0.12398254 -0.00061689393 0.77240241 0.055136587 -0.63289428 0.013413455
0.087369546 -0.12398831 -0.00016589533 0.78819251 0.050596677 -0.61350989 0.012267303
0.087657675 -0.12399757 0.00029432354 0.80299807 0.045872774 -0.59428656 0.011330381
0.08790233 -0.12399875 0.00070394692 0.81469584 0.042381439 -0.57839715 0.010447226
0.088173643 -0.12400616 0.0011758388 0.82794517 0.037588302 -0.55957514 0.0093654376
0.088445678 -0.12401292 0.0016480148 0.83789396 0.03318328 -0.544833 0.0087449523
0.088679418 -0.12401567 0.0020756712 0.84696937 0.029469989 -0.53083086 0.0080471998
0.088940613 -0.12402306 0.0025617292 0.85669553 0.025386976 -0.51519758 0.0074265841
0.089195691 -0.12403317 0.0030522137 0.86542946 0.020489536 -0.50061381 0.0066569806
0.089447759 -0.1240419 0.0035451895 0.87343287 0.01561972 -0.4867011 0.0059753107
0.089702316 -0.12405127 0.0040371548 0.88052881 0.011977112 -0.47385046 0.005618976
0.089973494 -0.12406535 0.0045811906 0.8884756 0.0066128927 -0.4589076 0.0050598914
0.090225227 -0.12407593 0.0050750091 0.89498913 0.0021917422 -0.44612667 0.0046940246
0.090494163 -0.12408848 0.0056147701 0.90180355 -0.0021527295 -0.43220025 0.0043988614
0.0907792 -0.12410274 0.0061959252 0.90883505 -0.0068209772 -0.41718516 0.0041898033
0.091037877 -0.1241132 0.0067327488 0.91511697 -0.010592179 -0.403153 0.0040652952
0.091314279 -0.12412469 0.007306003 0.92110568 -0.013742875 -0.38914996 0.0042538377
0.091543205 -0.12413239 0.0078024641 0.92657453 -0.016164267 -0.37581593 0.0043968912
0.09176375 -0.12414077 0.008302521 0.93199492 -0.018655308 -0.36202237 0.0045435093
0.091974512 -0.124148 0.0088051241 0.93735999 -0.020647757 -0.34779233 0.0047451449
0.092177734 -0.12415553 0.009310157 0.94262558 -0.021870181 -0.33316386 0.0050460268
0.092355609 -0.12416278 0.009785708 0.94757628 -0.023046462 -0.31871548 0.0052866852
0.092526048 -0.12416913 0.010265226 0.95247513 -0.023465943 -0.30372885 0.0055671982
0.092687242 -0.1241762 0.010749474 0.95731008 -0.023950091 -0.28807905 0.0058174147
0.092837647 -0.12418313 0.011238419 0.96208197 -0.023986319 -0.27171502 0.0060327416
0.092978664 -0.1241888 0.011731169 0.96663195 -0.024119627 -0.25503701 0.0062183477
0.093109898 -0.12419524 0.012227421 0.97094685 -0.024001827 -0.23810458 0.0063672806
0.093233183 -0.12420047 0.012726074 0.97500998 -0.023867689 -0.22089 0.0065410575
0.093347386 -0.12420548 0.013227053 0.97880381 -0.023620831 -0.203464 0.0067092534
0.093452491 -0.12421122 0.013729905 0.98233473 -0.023277584 -0.18571886 0.0068879179
0.093550988 -0.12421688 0.014233275 0.98549646 -0.02279746 -0.16817854 0.0070597176
0.093640156 -0.12422074 0.014720621 0.9882763 -0.021995341 -0.15111257 0.0073238672
0.093723014 -0.12422504 0.015227074 0.99089956 -0.021146726 -0.13298251 0.0075535453
0.093798593 -0.12422943 0.015720243 0.99310386 -0.020235393 -0.11552238 0.0078579038
0.093868479 -0.12423418 0.016227694 0.99511629 -0.01869748 -0.097022876 0.0082565108
0.093929872 -0.12423833 0.016733907 0.99674356 -0.017148061 -0.078844361 0.0086150533
0.093983352 -0.12424431 0.017238809 0.99804258 -0.015638627 -0.060590822 0.0089191245
0.094029576 -0.12424831 0.01774184 0.99903172 -0.013464949 -0.04197634 0.0093705142
0.094067402 -0.12425089 0.018240185 0.99968582 -0.010424894 -0.022932621 0.010014364
0.094096363 -0.12425619 0.018740207 0.99995744 -0.0083631454 -0.0045546382 0.010422127
0.094107665 -0.12425813 0.01923883 0.99990183 -0.0054247235 0.013982846 0.010593775
0.094111219 -0.12426136 0.019737501 0.99948621 -0.0024379168 0.032483529 0.010957205
0.094098859 -0.12426209 0.020241171 0.99874014 0.00064764888 0.050428994 0.011319786
0.094073229 -0.124265 0.020739883 0.99772984 0.0036380072 0.067396663 0.011618568
0.094030365 -0.12426806 0.021236395 0.99652225 0.0064200135 0.083285734 0.011696013
0.093972825 -0.12427052 0.02173038 0.99519253 0.0086452281 0.097700462 0.011554861
0.093900986 -0.12427419 0.022221511 0.99383527 0.010638021 0.11053198 0.011517037
0.093816102 -0.12427412 0.02272319 0.99247545 0.012859182 0.12207115 0.011666297
0.093713708 -0.12427318 0.023223437 0.99136358 0.014416505 0.13073932 0.01190047
0.093608417 -0.12427404 0.023723619 0.99030423 0.016134927 0.13859396 0.012220356
0.093491815 -0.12427298 0.024222648 0.98949486 0.017054554 0.14431891 0.012709663
0.0933716 -0.12427313 0.024721237 0.98895442 0.017360089 0.14795387 0.013321627
0.093240105 -0.12426925 0.025234368 0.98888195 0.017172737 0.14864017 0.014082639
0.093117855 -0.12426933 0.025733115 0.98896956 0.016421398 0.14803776 0.014972807
0.092993788 -0.12426912 0.02623187 0.98943681 0.014372984 0.14523607 0.01553768
0.092876457 -0.1242658 0.02674639 0.98996651 0.01328556 0.14139523 0.017141517
0.092762172 -0.12426265 0.027260503 0.99088806 0.01001869 0.13482323 0.017977821
0.092657372 -0.12426364 0.027760476 0.991979 0.0055738469 0.12680802 0.018401368
0.092561983 -0.12426365 0.028261296 0.99310285 0.0007335702 0.11773949 0.018907897
0.092479423 -0.12426533 0.028762849 0.99424547 -0.004771227 0.10757916 0.019352844
0.092407927 -0.12426801 0.029264865 0.99529189 -0.011114942 0.097030506 0.019366365
0.092350125 -0.12427161 0.02976688 0.99615562 -0.017629666 0.086761266 0.019329526
0.092312507 -0.12427313 0.030252876 0.99690998 -0.024511043 0.075678013 0.018956637
0.092286535 -0.12427539 0.030749802 0.99739701 -0.031092774 0.065625198 0.018927844
0.09227135 -0.12428066 0.031254716 0.99771184 -0.038444005 0.056214347 0.018369831
0.092270315 -0.12428104 0.031746857 0.99782956 -0.045567509 0.048208974 0.01753849
0.092275091 -0.12428516 0.032246489 0.99780238 -0.052843612 0.041067775 0.01654291
0.092295602 -0.1242888 0.032746833 0.99761558 -0.059642285 0.036022432 0.01579633
0.092318289 -0.12429429 0.033247568 0.99730384 -0.066606343 0.032740019 0.014716202
0.092347734 -0.12429528 0.033744033 0.99688214 -0.073145524 0.032401782 0.013684491
0.092381477 -0.12430133 0.034245845 0.99632269 -0.079511508 0.034625214 0.012958718
0.092418678 -0.12430076 0.034742482 0.99561644 -0.085896142 0.039701074 0.012314037
0.092446148 -0.12430631 0.035244446 0.99477929 -0.091121286 0.047880698 0.012244647
0.092475533 -0.12431133 0.035747349 0.99369395 -0.095889457 0.059501056 0.012164808
0.092493542 -0.12431649 0.036250003 0.99233085 -0.10014673 0.073221467 0.012256391
0.092508428 -0.12432133 0.036753338 0.99043119 -0.10449098 0.090685643 0.012880919
0.092506528 -0.12432382 0.037255563 0.98811615 -0.10729241 0.11029527 0.013487935
0.092499547 -0.12431852 0.037741929 0.98514539 -0.11106876 0.13120729 0.014173258
0.092476949 -0.12431813 0.038238745 0.98117739 -0.11385357 0.15620658 0.015235124
0.092431873 -0.12431614 0.038730685 0.97659028 -0.11504864 0.18197449 0.016037852
0.092378221 -0.12431311 0.039218195 0.97089916 -0.11601507 0.20983005 0.017101193
0.092301689 -0.12430575 0.039697219 0.96421736 -0.11633594 0.23855214 0.017939299
0.092200398 -0.12430689 0.040195022 0.95603597 -0.11598561 0.26990321 0.018638425
0.092067763 -0.12431389 0.040717054 0.94603366 -0.11474109 0.30361924 0.019468382
0.091918327 -0.12431033 0.04120269 0.93562371 -0.11233977 0.3355431 0.019616798
0.091734588 -0.12431174 0.041714061 0.92335176 -0.10953561 0.36866167 0.020137597
0.091523565 -0.12431169 0.042218056 0.90959042 -0.10631713 0.40257671 0.020096175
0.091310568 -0.12429903 0.04267149 0.89558983 -0.10257777 0.43403044 0.019849941
0.091029696 -0.12430104 0.043194011 0.87762427 -0.09718696 0.47103268 0.019463567
0.090716362 -0.12429816 0.043704201 0.85862535 -0.090802155 0.50673175 0.018667741
0.090379283 -0.12429267 0.04420298 0.83834553 -0.083183654 0.54164231 0.01791128
0.089977555 -0.12428955 0.044730574 0.8149032 -0.072550461 0.57822424 0.016925065
0.089545369 -0.12428377 0.045243975 0.79053319 -0.062764004 0.61319131 0.016168207
0.089091912 -0.12427476 0.045744807 0.7643804 -0.051024351 0.64701617 0.015798688
0.088562608 -0.12426596 0.04627471 0.73408347 -0.035026181 0.6830973 0.01571684
0.088006973 -0.12425589 0.046789069 0.69967568 -0.016999137 0.71843016 0.016640736
0.087348685 -0.12423414 0.047347434 0.66203147 0.0066180998 0.75339562 0.017784357
0.086649716 -0.12420639 0.04788306 0.62585062 0.028489623 0.78186655 0.018509705
0.086156398 -0.12419507 0.048231024 0.60230917 0.043370228 0.7992295 0.018277721
0.084296681 -0.12407164 0.049354222 0.53277057 0.091982871 0.84222806 0.01675782
0.083490305 -0.12404348 0.049764521 0.50667274 0.10866377 0.85592711 0.014828034
0.082778789 -0.12403268 0.050098043 0.48513108 0.12635072 0.86599928 0.013939978
0.081966944 -0.12402115 0.050448809 0.4655672 0.14830002 0.87327307 0.012631131
0.080950208 -0.12399954 0.050843451 0.44782829 0.16789871 0.87906259 0.011017697
0.077988438 -0.12374745 0.051950581 0.42800367 0.21762922 0.87807244 0.0080443369
0.077292874 -0.1237654 0.052235588 0.42830306 0.21388566 0.87846375 0.0076720077
0.076620087 -0.12377913 0.052549843 0.38936189 0.16848929 0.90870845 0.0069184355
0.075803734 -0.12380834 0.052844562 0.33478528 0.11939925 0.94992298 0.0064722695
0.074432231 -0.12379359 0.053232376 0.29667401 0.059901111 0.98696733 0.0072149909
-0.0066826278 -0.12053912 -0.014110538 0.234721 0.7968238 0.71800584 0.0056223045
0.007612071 -0.12103999 -0.012901406 0.15487269 -0.65675926 -0.7487362 0.0025142329
0.0072442982 -0.12129922 -0.012734648 0.18429221 -0.65024495 -0.75341362 0.0027130113
0.048683941 -0.12307929 -0.011870516 0.26991341 -0.67461127 -0.69344795 0.0041316962
0.049649049 -0.12314206 -0.011401666 0.28539899 -0.70182079 -0.66583651 0.0036641541
0.050276574 -0.12325053 -0.011001999 0.2969428 -0.7224499 -0.64529127 0.0035984479
0.051121857 -0.12330651 -0.01052948 0.30481628 -0.73657191 -0.62897563 0.0029414375
0.051524073 -0.12343734 -0.01016487 0.31210965 -0.7496565 -0.61340386 0.0027621081
0.068953887 -0.12394138 -0.0095450692 0.16970301 0.0087992866 -0.99024516 0.0046828026
0.070849471 -0.12398707 -0.0093522416 0.2465793 0.044543959 -0.97031361 0.0042490815
0.073009484 -0.12406659 -0.0088266442 0.310718 0.062440131 -0.94929117 0.0047082175
0.075377725 -0.12419014 -0.0079443986 0.37333006 0.073511131 -0.92485344 0.005176479
0.076473027 -0.12422821 -0.0074896943 0.3951447 0.076336958 -0.91545075 0.0053927312
0.077464916 -0.12425753 -0.0070676007 0.4118624 0.078474127 -0.90786231 0.0055759684
0.07825613 -0.12427375 -0.0067201639 0.42795396 0.078036614 -0.90043187 0.005791713
0.079257496 -0.12430641 -0.0062873159 0.45152724 0.075993866 -0.88911813 0.0065487549
0.080065668 -0.12432586 -0.0059298258 0.47303662 0.073855296 -0.87812966 0.0073075998
0.081555635 -0.12439878 -0.0052708299 0.51785123 0.068086222 -0.85342246 0.0094673075
0.082634166 -0.12444212 -0.0047479682 0.55662996 0.061058633 -0.82930046 0.011772372
0.083880499 -0.12451336 -0.003988591 0.61334515 0.052895315 -0.78832406 0.014065435
0.084643602 -0.12455092 -0.0034065684 0.64960313 0.047177903 -0.75894076 0.015247503
0.085219912 -0.12457566 -0.0028900616 0.67869133 0.043556031 -0.73321515 0.016009629
0.085753798 -0.12460211 -0.0023378576 0.70501363 0.040290941 -0.70825136 0.016100917
0.08614596 -0.12461416 -0.0018795633 0.72596711 0.037379015 -0.68695658 0.015569055
0.086519964 -0.12462881 -0.001399988 0.74647897 0.033508405 -0.66476697 0.014653854
0.086878046 -0.12464257 -0.00090584107 0.76568395 0.02926789 -0.64279234 0.013458378
0.087179765 -0.12465248 -0.000459111 0.78168416 0.024674088 -0.62331474 0.012428144
0.087470263 -0.12466335 -1.2107193e-007 0.79746896 0.020966742 -0.60310698 0.011312978
0.087752745 -0.12467268 0.00046850106 0.8120324 0.016338214 -0.58345789 0.010077089
0.088026449 -0.12468233 0.00094164175 0.82525617 0.012043548 -0.56465828 0.0090177041
0.088265151 -0.12468746 0.0013605419 0.83479744 0.0089076497 -0.55049366 0.0083203809
0.088530891 -0.12469554 0.0018405343 0.84489799 0.0052586109 -0.53490168 0.0076514967
0.088788211 -0.12470534 0.0023276405 0.85487306 0.00010477555 -0.51883882 0.0066868546
0.089016907 -0.12471071 0.0027651978 0.86268353 -0.0025835349 -0.50573856 0.0061768228
0.089290574 -0.12472492 0.0033127335 0.8722387 -0.0080184378 -0.48901924 0.0052909744
0.089540683 -0.12473363 0.0038059072 0.87936288 -0.012050009 -0.4760063 0.004720334
0.089789115 -0.12474392 0.0043018144 0.88637352 -0.015263159 -0.46273527 0.0043574977
0.090062186 -0.12475491 0.0048428173 0.89352578 -0.019100809 -0.44864094 0.0040580574
0.090332761 -0.12476555 0.005381343 0.90018034 -0.022956852 -0.43497539 0.0038680183
0.090617999 -0.12477461 0.0059629851 0.90700144 -0.027401146 -0.4203212 0.0035997394
0.090881474 -0.12478323 0.0064972495 0.91291678 -0.030557679 -0.40709078 0.0036364517
0.091138162 -0.12479208 0.0070317392 0.91869682 -0.033835597 -0.39359686 0.0036894854
0.091387071 -0.1247991 0.0075661377 0.92437071 -0.036862385 -0.37978896 0.0037791091
0.091611877 -0.12480547 0.0080641247 0.92964005 -0.039530974 -0.36638987 0.0039717881
0.091829702 -0.12481384 0.008564014 0.93479908 -0.041719846 -0.35275555 0.0042927368
0.092023373 -0.12482215 0.009032106 0.93958658 -0.043712217 -0.33953992 0.0045523923
0.092222087 -0.1248296 0.0095393509 0.94461066 -0.045586675 -0.32503077 0.0048581818
0.0923988 -0.12483751 0.010016507 0.94932508 -0.047143973 -0.31075957 0.0051700729
0.092566259 -0.12484518 0.010498261 0.95403296 -0.048442297 -0.29578 0.0054751886
0.092723012 -0.12485235 0.010984975 0.95874304 -0.049335308 -0.2799772 0.0057476033
0.092870302 -0.1248601 0.011475813 0.96330619 -0.050133683 -0.26369694 0.0059752888
0.09300632 -0.12486627 0.011970749 0.96770847 -0.050634027 -0.24694934 0.0061355545
0.093131632 -0.12487195 0.01246905 0.97185558 -0.051115662 -0.2299781 0.0062148613
0.093249708 -0.12487923 0.012969471 0.9757719 -0.051608976 -0.21264356 0.0063446676
0.093358442 -0.12488402 0.013472085 0.97937775 -0.052072212 -0.19525599 0.006437656
0.09345717 -0.12489115 0.013955366 0.98254406 -0.052450784 -0.17849965 0.006652052
0.093552552 -0.12489609 0.014461573 0.98558235 -0.052578919 -0.16084039 0.0068265628
0.093638316 -0.12490255 0.014952169 0.98824042 -0.052712984 -0.14357254 0.0070713856
0.093719557 -0.12490553 0.01546066 0.99066532 -0.052439008 -0.12589049 0.0073151789
0.093794324 -0.12490945 0.015968837 0.99281889 -0.052044921 -0.10783979 0.0076382481
0.093861014 -0.12491313 0.01647594 0.99462527 -0.051358655 -0.090034053 0.0079960786
0.093919113 -0.12491541 0.016982062 0.99615747 -0.050369363 -0.071812004 0.0082807653
0.093970314 -0.12491844 0.017486477 0.99737751 -0.049025059 -0.053731907 0.0086300774
0.094012015 -0.12492039 0.01798906 0.99824798 -0.047476996 -0.035674136 0.0090029379
0.094046757 -0.12492492 0.018487409 0.99881595 -0.045743003 -0.017282382 0.0095251845
0.094069421 -0.12492633 0.0189867 0.99905097 -0.043726727 0.0010547731 0.0099143311
0.094082512 -0.12493135 0.019487198 0.9989602 -0.04154655 0.019476008 0.010443198
0.094082549 -0.12493236 0.019983046 0.99853295 -0.039285887 0.03750198 0.010824629
0.094064206 -0.12493573 0.020486567 0.99781418 -0.036850046 0.054915681 0.010961953
0.09403348 -0.12493778 0.02098427 0.99685919 -0.034400132 0.071391322 0.011117615
0.093987674 -0.1249393 0.021479752 0.99567682 -0.032176882 0.087149054 0.011106119
0.093923636 -0.12494081 0.02198353 0.99440145 -0.02976287 0.10153292 0.010924879
0.093849838 -0.12494156 0.022474997 0.99309754 -0.027693503 0.11413979 0.010967787
0.093757965 -0.12494144 0.022976564 0.99185997 -0.026136735 0.12479722 0.01106575
0.093657359 -0.12494185 0.023477534 0.99073905 -0.024803014 0.13379364 0.01120114
0.093545519 -0.124942 0.023977315 0.98974305 -0.024354318 0.14106818 0.011458801
0.093428031 -0.12494174 0.024476431 0.98899055 -0.024259767 0.14643452 0.011593085
0.093303181 -0.12494144 0.024974596 0.9885596 -0.024634795 0.14927395 0.012235592
0.093179643 -0.124941 0.025473166 0.98834622 -0.025435274 0.15059669 0.012730768
0.09305276 -0.12494106 0.025987247 0.98844272 -0.026017033 0.14991874 0.013725583
0.09292981 -0.12494072 0.026485866 0.98872262 -0.028796868 0.14739361 0.014271502
0.09280695 -0.12494176 0.026999947 0.98932147 -0.031703532 0.14273158 0.015039611
0.092693068 -0.12494224 0.027499309 0.99007666 -0.035166766 0.13660814 0.015734877
0.092590474 -0.12494315 0.027998937 0.99095327 -0.039695691 0.12869532 0.016255124
0.092492878 -0.12494801 0.028512932 0.99186379 -0.044797752 0.11974122 0.016873121
0.092414357 -0.12494729 0.029002706 0.99271411 -0.049891897 0.11012797 0.017183514
0.092345357 -0.12495414 0.029516973 0.99347937 -0.055016275 0.10003307 0.018032588
0.092291184 -0.12495505 0.030009262 0.99413288 -0.060876787 0.089511663 0.018043738
0.092249595 -0.12495618 0.030503789 0.99459803 -0.06715592 0.079192169 0.017798131
0.092218705 -0.12495809 0.030999752 0.99483865 -0.073846392 0.069668613 0.017103456
0.092201799 -0.12495968 0.031497333 0.9949283 -0.080169931 0.060935691 0.016489055
0.09219294 -0.12496305 0.031995695 0.99484128 -0.086824365 0.052856736 0.015582952
0.092193246 -0.12496731 0.032494985 0.99449021 -0.094045438 0.046965603 0.014366616
0.09220589 -0.12497135 0.032995183 0.9940837 -0.10037709 0.042592425 0.013464133
0.092223518 -0.12497733 0.033496056 0.99351531 -0.10661757 0.040970534 0.012455514
0.092247777 -0.12497357 0.033991586 0.99285734 -0.11256883 0.041316357 0.011560185
0.092277326 -0.1249804 0.034493644 0.99210989 -0.11771009 0.044856708 0.011126011
0.092306197 -0.12497586 0.034989089 0.991175 -0.12339979 0.050179124 0.010796452
0.092325948 -0.12498154 0.035490971 0.99000716 -0.12841964 0.059690006 0.010603265
0.092346042 -0.12498635 0.035993308 0.98857814 -0.13297428 0.071910083 0.010595356
0.092361629 -0.12498004 0.036485296 0.98694795 -0.13609295 0.086762033 0.01091672
0.09236338 -0.12498324 0.036985371 0.98468292 -0.14011285 0.10416971 0.011458639
0.09235321 -0.12498481 0.037484009 0.98191297 -0.14388609 0.12329245 0.011973969
0.092337437 -0.12498568 0.037981439 0.97832566 -0.14661483 0.14646459 0.012970361
0.092303716 -0.12498274 0.038474891 0.97412246 -0.14819255 0.17085065 0.013926179
0.09225186 -0.12497784 0.038963571 0.96892047 -0.1499667 0.19708014 0.014703596
0.092179649 -0.12498266 0.03946916 0.96233171 -0.15065126 0.22666755 0.015787357
0.09209317 -0.12497253 0.039945062 0.95542663 -0.14950803 0.25493616 0.016522009
0.091978036 -0.12497185 0.040439494 0.94702315 -0.14833069 0.28522769 0.017192993
0.091828413 -0.12498081 0.040958598 0.9368031 -0.14646475 0.31820023 0.017714813
0.091655016 -0.12498697 0.041474376 0.92516565 -0.14349706 0.35225901 0.018058842
0.09145344 -0.12498684 0.041983046 0.91241813 -0.14037733 0.38538927 0.018298483
0.091228917 -0.12498523 0.042483803 0.89850432 -0.13603611 0.41824883 0.018338446
0.090999201 -0.12496661 0.042929638 0.88483715 -0.13069662 0.4486323 0.0175895
0.090707734 -0.12497018 0.043448675 0.86621851 -0.12480323 0.4854598 0.01762839
0.090381369 -0.12496623 0.043953121 0.84727347 -0.1175919 0.52015471 0.016955836
0.090030544 -0.12495886 0.044443969 0.82722682 -0.10884003 0.55383188 0.016127056
0.089617103 -0.12495663 0.044966143 0.80474859 -0.098415971 0.5888415 0.015002955
0.089177392 -0.12494954 0.045473713 0.7807886 -0.086083569 0.62274146 0.014472315
0.088673703 -0.12494697 0.04602088 0.75230539 -0.070834801 0.65929776 0.015001785
0.088141695 -0.12494028 0.046552405 0.72173357 -0.052938644 0.69481969 0.015303722
0.087510556 -0.12492396 0.047130719 0.686001 -0.029913619 0.73040384 0.016957989
0.086838394 -0.12489961 0.047696311 0.64941168 -0.0056253956 0.76326078 0.018635506
0.086133353 -0.12487121 0.048234139 0.6159417 0.017626867 0.78992915 0.018767402
0.084817566 -0.12479457 0.049117818 0.56368232 0.055072196 0.8251878 0.018707586
0.084477164 -0.12479718 0.049322229 0.55259639 0.061225545 0.83199483 0.017857218
0.083614968 -0.12476089 0.049816243 0.52293605 0.084507614 0.84886491 0.016308749
0.08301872 -0.12475622 0.050135851 0.50354779 0.099940151 0.85912061 0.015416672
0.082322158 -0.1247493 0.050471 0.48321673 0.11888357 0.86823905 0.013997893
0.081528075 -0.12474252 0.050826896 0.46481237 0.13823545 0.87551457 0.013130196
0.080627955 -0.12473468 0.051194835 0.4494594 0.15750439 0.88035417 0.011372937
0.076786861 -0.1243882 0.052644968 0.36305788 0.14875934 0.92500138 0.0069496986
0.076160163 -0.12444287 0.052839797 0.31891569 0.11059669 0.95618927 0.0070501883
0.075095236 -0.12446436 0.053120133 0.2796489 0.066377729 0.98681849 0.0071413945
0.074449837 -0.12453924 0.053271502 0.25922641 0.038720872 1.0058208 0.0073494511
-0.0059401407 -0.12109973 -0.013676127 0.13814214 0.79944801 0.6855368 0.0055377064
-0.0050526885 -0.12141721 -0.013410141 0.034100868 0.80251026 0.64703959 0.0055376845
0.0070944536 -0.12161822 -0.012496649 0.20390455 -0.64427203 -0.75760347 0.0027130423
0.0072316653 -0.12184695 -0.012263455 0.23239318 -0.64639491 -0.75459224 0.0031370695
0.0071177739 -0.12210246 -0.012074071 0.24076569 -0.63989407 -0.75896847 0.0031905414
0.048575271 -0.12383537 -0.011181326 0.30574116 -0.69396645 -0.6662547 0.0044340729
0.049529593 -0.12386723 -0.010676646 0.31496966 -0.72403902 -0.63571668 0.0039344155
0.05015045 -0.12395374 -0.010249685 0.33146185 -0.74345863 -0.61341912 0.003631626
0.050217465 -0.12414172 -0.0099616628 0.34643254 -0.76050967 -0.59084386 0.0037330699
0.070220008 -0.12467115 -0.0095508257 0.22633746 0.034162093 -0.97502935 0.0039747483
0.072073989 -0.12472846 -0.0091747493 0.27577037 0.047728937 -0.96154082 0.0046957866
0.074793309 -0.12485883 -0.0082396446 0.35896629 0.054774243 -0.93181407 0.005334287
0.0761941 -0.12491649 -0.0076598385 0.38891771 0.055941671 -0.91959077 0.0054438254
0.077084981 -0.12494321 -0.0072813299 0.40567368 0.055066422 -0.91236544 0.0054537226
0.077776082 -0.12495586 -0.0069813048 0.41871861 0.054408375 -0.90649164 0.0055999258
0.078675933 -0.12498484 -0.006589618 0.43946975 0.050652165 -0.89693463 0.0060512442
0.079776525 -0.12502652 -0.0061062332 0.46692339 0.045976084 -0.883277 0.0069084321
0.080791153 -0.12506256 -0.0056704427 0.49552631 0.041803785 -0.8680104 0.0083647184
0.082167216 -0.12512377 -0.0050339415 0.54147786 0.0339229 -0.84068322 0.010742675
0.083453178 -0.12518317 -0.0043119011 0.59528893 0.02474029 -0.80354476 0.013296798
0.084175162 -0.12521127 -0.0038135499 0.62876773 0.01971413 -0.7775718 0.014761223
0.084914766 -0.12524599 -0.0032016595 0.66412991 0.013668775 -0.74757528 0.015911791
0.085466437 -0.12527026 -0.0026590293 0.69288743 0.010880537 -0.72102153 0.016312275
0.085920662 -0.12529054 -0.0021448652 0.71653205 0.0080315238 -0.69767159 0.015921209
0.086352713 -0.12530872 -0.0016125494 0.73987597 0.0049957098 -0.67297465 0.014883211
0.086710781 -0.12532328 -0.0011212362 0.75981271 0.0016882496 -0.65043753 0.013534226
0.087014899 -0.12533329 -0.00067911542 0.7769686 -0.0018661381 -0.62972283 0.012402292
0.08730872 -0.12534539 -0.00022412435 0.79262859 -0.0057121981 -0.60977274 0.01131038
0.087592959 -0.12535682 0.00024137064 0.80754751 -0.0096739354 -0.58977538 0.010081799
0.087864995 -0.12536837 0.00071832159 0.82204121 -0.013857201 -0.56929195 0.0086664762
0.088135324 -0.12537727 0.0011901458 0.83308148 -0.016949918 -0.55289382 0.0079083834
0.08836887 -0.12538616 0.0016143003 0.84204298 -0.019853283 -0.53904557 0.0071870647
0.088595308 -0.12539519 0.002050773 0.85169578 -0.02369974 -0.52350181 0.0062356242
0.088855311 -0.12540472 0.0025367148 0.86009699 -0.026568275 -0.50944 0.0056864815
0.089103639 -0.12541528 0.0030333679 0.86900938 -0.030349065 -0.49386683 0.0048833848
0.089378685 -0.12542383 0.0035757483 0.87702626 -0.033548824 -0.47927201 0.0043178275
0.089648187 -0.12543344 0.0041196607 0.88498926 -0.037560564 -0.46411109 0.0038016592
0.089920282 -0.12544188 0.0046580145 0.89192837 -0.040444206 -0.45039019 0.0035903959
0.090167306 -0.12545134 0.0051508998 0.89809793 -0.043338086 -0.43770441 0.0034090306
0.090452604 -0.1254572 0.0057313498 0.90493447 -0.046709444 -0.42305344 0.0032239556
0.090714462 -0.12546384 0.0062657087 0.91085529 -0.049980726 -0.40979329 0.0031741573
0.090972312 -0.12546891 0.0067987903 0.91653413 -0.052845839 -0.39654204 0.0032787935
0.091205359 -0.12547682 0.0072939657 0.92186624 -0.055892523 -0.38352805 0.0034088443
0.091437317 -0.12548496 0.0077894279 0.92689162 -0.058381956 -0.37081501 0.0037068317
0.091659896 -0.12549317 0.0082887281 0.93183029 -0.061210793 -0.3577581 0.0039869496
0.091873504 -0.12549902 0.0087909801 0.93682051 -0.064002983 -0.34394461 0.0043106512
0.092063174 -0.12550901 0.0092620691 0.94139177 -0.066403955 -0.33074099 0.0046116402
0.092257656 -0.12551552 0.0097714579 0.94626951 -0.068659544 -0.31602111 0.0049392916
0.092428587 -0.12552467 0.010251397 0.95078129 -0.070936777 -0.30164108 0.0052433903
0.092589617 -0.12553321 0.010736082 0.95529461 -0.072664015 -0.28660476 0.0055067949
0.092741244 -0.12554216 0.011225121 0.95975596 -0.074335583 -0.27083811 0.0057258238
0.092882007 -0.1255493 0.011718368 0.96410424 -0.075681679 -0.25452682 0.0059087975
0.093014129 -0.12555686 0.012214682 0.9682591 -0.077090427 -0.23777433 0.0060592419
0.093135491 -0.12556258 0.012714259 0.97219908 -0.078485146 -0.22063255 0.0061692428
0.093247846 -0.12556762 0.013216038 0.97585678 -0.079769708 -0.20336023 0.0062572993
0.093352072 -0.12557279 0.013719346 0.97925669 -0.08081951 -0.18585932 0.0063416827
0.09344808 -0.12558375 0.014204125 0.98213512 -0.082329467 -0.1692539 0.006600617
0.093539052 -0.12558672 0.014710649 0.98493159 -0.082970098 -0.15182228 0.0066906721
0.093623146 -0.12558946 0.015217228 0.98740476 -0.08371523 -0.13435388 0.0068566659
0.093697809 -0.12559849 0.015710793 0.98953867 -0.08425843 -0.1172446 0.0071124434
0.0937685 -0.12560001 0.016218396 0.99145293 -0.084295414 -0.099771164 0.0073761046
0.093832076 -0.12560195 0.016725069 0.99311024 -0.084025398 -0.081996866 0.007732003
0.093888171 -0.12560241 0.017230313 0.99446946 -0.08337687 -0.064287253 0.0081552882
0.093932979 -0.12560213 0.017734062 0.99548244 -0.082842693 -0.046691436 0.0084036821
0.093971245 -0.12560809 0.018232616 0.99623948 -0.081966989 -0.028731152 0.0088658594
0.09400057 -0.12560666 0.018733647 0.99668878 -0.080718286 -0.010687341 0.0092586894
0.094019555 -0.12561122 0.019232515 0.99683541 -0.079292163 0.0075178575 0.0097407233
0.0940267 -0.12561382 0.019731849 0.99668199 -0.077414274 0.025544101 0.0101866
0.094020903 -0.12561643 0.020230845 0.99619174 -0.075805441 0.043205228 0.010470652
0.094000883 -0.12561813 0.020728864 0.99545598 -0.073810227 0.060215816 0.010708549
0.093966968 -0.12561803 0.021225169 0.99450856 -0.071822569 0.076215565 0.010923193
0.093916215 -0.1256233 0.021729393 0.99333674 -0.06991633 0.091673143 0.010982985
0.093848407 -0.12562642 0.022233656 0.99213606 -0.068286531 0.10497048 0.010912463
0.093769737 -0.12562427 0.0227248 0.99093306 -0.066475034 0.11685347 0.010947877
0.093674332 -0.12562545 0.023226334 0.9897294 -0.065433651 0.12727123 0.010862843
0.093570143 -0.12562495 0.023727028 0.98860377 -0.064624123 0.13616765 0.010873995
0.093458168 -0.1256251 0.024227029 0.98763216 -0.064038418 0.14338687 0.011161966
0.093336925 -0.12562545 0.024725692 0.98688912 -0.064349331 0.14836515 0.01135618
0.093212217 -0.12562458 0.025224075 0.98642015 -0.065205656 0.15118931 0.011530726
0.093085632 -0.12562248 0.025722019 0.98614538 -0.066654332 0.15233454 0.011819334
0.092957191 -0.12562768 0.026236184 0.98612654 -0.068902276 0.15144914 0.01224272
0.092833519 -0.12562691 0.026734635 0.98631346 -0.07162971 0.14889027 0.012785089
0.092713781 -0.12562647 0.027233798 0.98673171 -0.074856028 0.14449345 0.013287319
0.092597455 -0.12563309 0.027748253 0.98733968 -0.07886982 0.13803299 0.013877789
0.09250208 -0.12563412 0.02824989 0.98808831 -0.081624612 0.13059896 0.015417767
0.092410006 -0.12563621 0.028751319 0.98882359 -0.086229496 0.12173658 0.015960246
0.092325158 -0.12563977 0.029253187 0.98946631 -0.091420427 0.11231691 0.016071774
0.09225449 -0.12564439 0.029755676 0.99004668 -0.096847102 0.10221936 0.016165551
0.092197485 -0.12564285 0.030248629 0.9904694 -0.10233755 0.092263274 0.015858578
0.092149124 -0.12564082 0.030743195 0.99080831 -0.10755337 0.082095809 0.015441005
0.092114925 -0.12565042 0.031248141 0.99091303 -0.11315937 0.072777361 0.015005078
0.092091762 -0.12565212 0.031745318 0.99084157 -0.11859419 0.064691029 0.014162293
0.092080206 -0.12565464 0.032243509 0.99060851 -0.12432478 0.057180285 0.013246215
0.09208174 -0.12565748 0.032742988 0.99019694 -0.12990445 0.051904332 0.012421523
0.092086881 -0.12566218 0.033243071 0.98951972 -0.1360435 0.049245138 0.011402556
0.092098705 -0.12566777 0.033743817 0.98876816 -0.14165381 0.048690464 0.010493399
0.092117064 -0.12566 0.034238577 0.98792672 -0.14693186 0.050444804 0.0097825238
0.092135392 -0.1256662 0.03474021 0.98691314 -0.15224741 0.054499336 0.0092785275
0.092154689 -0.12567183 0.035242375 0.98564661 -0.15767777 0.061469726 0.0090139266
0.092169397 -0.12566163 0.03573538 0.98431885 -0.16176648 0.07120461 0.0088987565
0.092179403 -0.12566651 0.036236767 0.98261893 -0.16579318 0.084140241 0.0090869125
0.092190921 -0.12565574 0.036726244 0.9805724 -0.16929947 0.099585183 0.0095913084
0.092185475 -0.12565783 0.037224799 0.97794551 -0.17301783 0.11734878 0.010113352
0.092169866 -0.1256579 0.037721455 0.97471416 -0.17619045 0.13771823 0.010925641
0.092143759 -0.12565513 0.038215328 0.97087866 -0.17782307 0.16078106 0.011862122
0.092102937 -0.12565079 0.038704991 0.96606481 -0.17946224 0.18606232 0.01291355
0.092032142 -0.12565672 0.039210349 0.96024978 -0.18031386 0.21341068 0.013664594
0.091945507 -0.1256616 0.039713856 0.95338482 -0.18034995 0.24234983 0.014528492
0.091849998 -0.12564702 0.040185612 0.94615072 -0.1788644 0.27021599 0.015265675
0.091708608 -0.1256606 0.040705793 0.93692571 -0.17728767 0.30167556 0.015833197
0.091541536 -0.12566839 0.041221738 0.92653298 -0.17469908 0.33383623 0.016139528
0.091353878 -0.12567264 0.041735318 0.91441959 -0.17113228 0.36760798 0.016694611
0.091160402 -0.12565888 0.04220257 0.90247494 -0.16695288 0.39785099 0.016856922
0.090920195 -0.12565252 0.042694345 0.88881731 -0.16162561 0.43004176 0.016321529
0.090662859 -0.12564507 0.043176275 0.87317276 -0.15599599 0.46325397 0.016178714
0.090354942 -0.12564614 0.043688193 0.85504562 -0.14933063 0.49840161 0.015865497
0.09001901 -0.12564115 0.044187181 0.83677644 -0.14077607 0.53153145 0.015096766
0.089622207 -0.12564404 0.044717912 0.81544924 -0.13064228 0.56663662 0.014486512
0.089197256 -0.1256409 0.045235496 0.7944265 -0.11908341 0.5988881 0.013413382
0.088754267 -0.12563357 0.045743003 0.77101731 -0.10603456 0.63157558 0.013098301
0.088242009 -0.12563221 0.046286799 0.74269712 -0.089045219 0.66817158 0.013663718
0.087647445 -0.12562793 0.046883743 0.7102561 -0.066837765 0.70501482 0.014851307
0.087008871 -0.1256092 0.047478903 0.6743561 -0.040964186 0.74111444 0.016845895
0.086258776 -0.12558082 0.048111606 0.63708293 -0.014221482 0.77294987 0.018859554
0.085848756 -0.1255572 0.048431143 0.61646461 0.00023358916 0.78990752 0.019060628
0.085059464 -0.12552531 0.049016081 0.5818578 0.025102509 0.81467104 0.019007422
0.084394671 -0.12549932 0.049448907 0.55980116 0.04144486 0.82850868 0.019076413
0.083725758 -0.12547784 0.049858339 0.53741258 0.059499186 0.84187394 0.018067421
0.083051071 -0.12546352 0.050240912 0.51559299 0.077115476 0.85412467 0.016587997
0.082279541 -0.12544657 0.050648451 0.49306044 0.097860292 0.86537945 0.015773565
0.081687815 -0.1254517 0.050938383 0.47830176 0.11547781 0.87157148 0.0147633
0.080715843 -0.12543155 0.051391613 0.45350257 0.13760139 0.88172501 0.013266447
0.079617217 -0.12541196 0.051825076 0.43821672 0.15328269 0.8865993 0.01144187
0.075540066 -0.12513292 0.053063244 0.25285798 0.047134809 0.9963913 0.0083836103
0.074775666 -0.12519303 0.053203072 0.22313167 0.0086706141 1.0182897 0.0088025229
-0.0051507349 -0.12183691 -0.012899383 0.023589414 0.79882944 0.65640569 0.0054281121
-0.0042816633 -0.12207452 -0.012554845 0.089860313 -0.79767221 -0.61530757 0.0053395825
0.0068407068 -0.12244711 -0.011877179 0.26400024 -0.62867135 -0.76732862 0.0031905414
0.0072299042 -0.12263835 -0.011581801 0.31632739 -0.64453882 -0.75425923 0.0041882293
0.0069868383 -0.12289631 -0.011408958 0.45563364 -0.6427564 -0.75133032 0.0065925224
0.048967347 -0.12467419 -0.010061704 0.38273722 -0.7474041 -0.59170598 0.0049145855
0.071782842 -0.12542985 -0.009298142 0.25592342 0.036429167 -0.96811599 0.0048661097
0.074097544 -0.12552559 -0.0085569536 0.33856994 0.036844105 -0.94052851 0.0054560481
0.076011695 -0.12560913 -0.0077717165 0.38555044 0.033685535 -0.92209631 0.0053408411
0.076797515 -0.1256306 -0.0074358173 0.40137666 0.031686153 -0.91539854 0.0053399298
0.077488944 -0.1256489 -0.0071398639 0.41523498 0.02969991 -0.90928179 0.0055134986
0.078382023 -0.1256797 -0.0067445817 0.43400472 0.026044171 -0.9006325 0.005714105
0.07938318 -0.12571651 -0.0063112066 0.45783731 0.020409383 -0.88896918 0.0065968879
0.080195509 -0.12574464 -0.0059555192 0.47936809 0.016314143 -0.87775749 0.0074919602
0.081859753 -0.12581493 -0.0051993979 0.53218007 0.004806323 -0.84716409 0.010187817
0.083081283 -0.12586237 -0.0045529613 0.58011895 -0.0032059397 -0.81497407 0.012523406
0.083812147 -0.12588981 -0.0040682359 0.61486363 -0.0085060047 -0.78873885 0.013844212
0.084577665 -0.12592015 -0.0034804288 0.65082031 -0.014686822 -0.75913048 0.015210403
0.085083127 -0.12594078 -0.0030125296 0.67555994 -0.018344551 -0.73710877 0.015888885
0.085679911 -0.12596388 -0.002393764 0.70524091 -0.021651531 -0.70870399 0.016116777
0.086117506 -0.12598325 -0.0018671419 0.72872174 -0.023501605 -0.68470758 0.015159748
0.086483642 -0.12599777 -0.0013823095 0.7498166 -0.026210671 -0.66139889 0.013954863
0.086833015 -0.12601185 -0.00088410149 0.77046657 -0.029262459 -0.63708174 0.012393085
0.087129012 -0.12602538 -0.00043251598 0.78667307 -0.032340292 -0.61666334 0.011208993
0.087454647 -0.12603854 8.7240594e-005 0.80371207 -0.03586499 -0.59396875 0.0099788234
0.087689839 -0.12604944 0.00050199294 0.81692332 -0.039017253 -0.57547307 0.0085794237
0.087959193 -0.12606117 0.00097686623 0.82898033 -0.042474627 -0.55767852 0.0075271642
0.088192634 -0.12607236 0.0013993792 0.83869338 -0.044485837 -0.54279011 0.0067613479
